ply
format ascii 1.0
element vertex 779
property double x
property double y
property double z
end_header
-7.79448132486061063 -4.58257274664037162 -0.524834691068498227
-5.04886341580421227 3.66481877409517454 9.26145022160539177
10.0349674634591892 6.10137629981831076 -4.69610021587646997
-0.834555818757053314 -6.55829289967250961 1.6509269925064014
4.7350896782561227 3.72208945586099826 9.95532528689647478
4.20245725453453467 -6.55829289967250872 -4.64389585660249349
9.28494934348599621 3.37286737215066923 3.96045178139223797
-8.08668656843665978 -2.94625580640044626 -6.47957782153232298
-8.64161929458305522 0.512172727236452241 -7.10370523923350827
1.00803612210517479 -1.54930240320897727 8.33043359825670926
-0.451778985213810436 -6.55829289967250872 -5.62923964093394602
-9.96503160778104835 5.20596271704443758 0.87014265901848431
-9.72912012713087648 6.51742102761616238 -4.78578397136320799
-1.16735500635234257 3.46116581775244647 9.22508684250869493
9.03113259773167343 2.77391256792527097 -7.4389458687733363
-8.67372917787235309 0.341222036723214606 -5.70017939275832131
7.36134746302362331 -6.34942110657457626 7.07334300633470026
-3.46695995397882228 3.72208945586099826 9.62187607992584759
-8.52967549042930706 -0.465415521703531287 0.45902045145769671
8.62588649265357255 -0.31813394993637989 5.88024708333606583
5.32614191174138085 -6.55829289967250784 -6.2624604994656865
-9.96503160778104835 5.82106502793793101 -6.48823191774416319
1.60549183177305577 4.90663647393978497 -9.80474742360363827
-9.37814635929539797 6.00391160623486098 -8.50639941969839342
-9.72912012713087471 4.44424447994869709 -3.85805082923498111
4.79602365795596874 0.852670952232444934 -8.84069916927705357
10.0349674634591874 4.82673359221915632 2.25986320620344872
6.72120423538296663 2.88839167748074388 9.11702026320805636
-9.96503160778104835 5.64514646645120965 5.2251107128283012
5.13257835725807343 1.8255108483717486 -9.01441772369884831
7.40981173512547997 4.37147213106098942 -9.94071998129234302
9.79908756064089381 4.45404384481064586 -6.50742819361205527
-7.76496869815733159 -1.76194803315019999 -7.85917415907480876
5.35865927367792771 -2.08674276363848232 8.23445272548277352
-9.92582053756948923 6.36967440064649537 -7.11016051386009185
-4.99550208663741735 -6.55829289967250872 -5.31127343151760023
2.225694797684314 -6.55829289967250872 1.00307410023964327
5.9986982513029492 5.45854219107499095 -9.80474742360363827
6.70469194095711707 5.93409081797797722 -10.0377053914631489
4.88464953706801097 1.96284903529941501 -9.03894199680346055
7.80843270720341831 -4.89614633219468942 1.913521508506969
5.71053150510971985 0.411706779421343039 -8.76194870374267687
8.27520971315453657 -0.593018915140878899 7.55587771784799234
-8.10042075230221137 -2.86934907754987334 5.1641154429259446
0.720593742709450535 1.78475183527577586 -9.00713944814416401
-9.94819760923461516 6.52582152835961171 0.634088352674796574
4.27887802099282677 -5.28846678201308951 -7.74406325297464537
0.931911216228249017 -6.55829289967250872 5.05031833372421435
-7.28930283370589738 -6.55829289967250872 -4.11276598399097448
-2.54671811397291714 3.72208945586099826 -9.62408310128434508
1.38127860756725118 -1.05970631505982649 8.41785948018639196
7.36307677548536343 6.16197967320833584 -9.70947360637953416
-8.04804314176167779 -3.1625958690332383 3.63594350337702776
2.27037712669947833 -6.55829289967250872 6.09152411793935311
-9.19918307431233373 3.72208945586099826 7.63566604426020934
-5.07689956085606919 -0.3004823175790583 -8.6347782881216304
9.95835031733652443 5.38855349175120235 7.21705701791305199
-9.96503160778104835 4.95703690463470625 -6.61631925438177859
-7.70602080592631111 -5.07796316734437259 2.6518121028622641
2.92119083565049653 0.854682830225685475 -8.84105842729889879
2.94005449466270807 5.55054939923729496 9.72346026416813025
7.45973977841677627 -1.16265302890140698 8.18021528534016973
1.01566948349200326 -0.23675704285278365 8.56480194772804282
-9.72912012713087471 4.81992213546758208 -1.18014599415269283
-7.51386344873454526 4.565437344443942 -9.89058836553043186
-2.63655719602364291 -1.08962709981006811 8.41251660458314099
8.54436671145049687 -0.701111444756423507 6.73719261947820325
7.97696903424176984 3.72208945586099826 9.20169116124122688
-7.80324320041663455 5.6940323582112411 9.45249964350617056
6.04728358121360099 -6.55829289967250872 0.647475782707399028
-8.26122053174731796 -1.96879365646209559 -4.71391151754386595
-5.18250596690541876 -3.70526741428466533 -8.02678205072712636
7.37110635722645569 4.8346785666768648 9.62657663463972924
-9.72912012713087471 5.64565509004732036 -4.85332394294421654
9.8669712844333386 3.72208945586099826 6.68496830159388011
5.33612709558093723 4.28614005694522149 9.72346026416813025
-4.98500340996738966 -6.55829289967250872 -2.43671232129189663
-8.10197871772316702 -2.86054732048723359 -2.43767546036244909
-1.61124699168343311 -6.52765745379831852 -7.52277985329287535
8.78182592637594439 4.90676889174308428 -8.93205894435357628
-0.636694603111996993 -1.47555845182726952 8.34360186112191826
-4.53471167832078592 -6.55829289967250872 6.42020508041754479
-2.79949690243981353 -6.55829289967250872 -6.55012348337826911
-9.96503160778104835 5.7689649068235509 -3.86146769260092571
10.0349674634591874 5.00613838288730495 5.38557742986238441
8.92633850211506896 2.62922215728917541 -7.63682769376628467
-7.29017106502718715 -1.68983786559003546 -8.20569180106695661
-9.0275784860093129 2.41339186822106289 6.80048721631218633
-8.88604140965465028 1.53019011518121673 -1.13033465200923344
-6.32304072396574224 -1.9151904013151102 8.26507485488202143
-6.66633785785987065 -6.55829289967250872 -2.59043559264160894
-1.17475136853556195 -6.55829289967250784 1.95697950760093597
2.27161556847377355 -6.55829289967250872 6.709149471596902
8.81699212346665639 0.751977498936732713 1.53556199383338221
8.1618185355964652 -2.91720309012729651 4.50599425285873512
-8.71375020402366296 0.565347372545897398 5.05586013088994424
1.73063114391784834 5.08697630420864044 -10.0406589042538101
-8.99924698127191647 2.16412749431461293 -0.734456406425788466
-9.39073933644329628 4.61573444772245089 -8.01562158803682578
9.65509732471437943 3.72208945586099826 0.529651431874512912
-6.17733955497733866 -6.55829289967250872 2.79050177797704224
8.94261691289201543 2.22927895940549892 -7.39713079958851427
-9.96503160778104835 4.75876552194361757 -3.90865613127021261
-9.07602000604007664 2.59404705935347302 5.5475866420670501
9.34707513370044296 3.72208945586099826 -8.58219864646497221
-4.83617056464914707 -3.7352984581450861 -8.02142000665305765
6.26763965956797797 -5.58568975022459213 7.60966449689095281
-8.25352898847368444 -2.01184607738619192 1.99823472110562417
3.82070297777755741 -3.10543021130587205 -8.13389648054668157
2.0570093753216061 -6.55829289967250872 7.29161690895566661
-7.46883711451323951 0.960351325833921465 -8.64524798827758723
0.00984710103358082262 -6.55829289967250872 0.242500539645946755
9.25153587817426271 3.1857284433808819 -0.961155939725789277
3.46698699913588726 4.1877030459397302 -9.80474742360363827
-9.96503160778104835 6.38711671133928771 -5.93699730851656771
-1.24076181709970634 -0.0683367707253234175 8.59487433318673055
1.1074048024257177 3.72366269255368776 -10.0406589042538101
9.79908756064089381 4.64275901360576881 -0.488122411988536564
3.18131526232612938 5.42274399610381153 -10.0406589042538119
-1.29254628709859154 -6.26327471176883144 7.48867199835113961
3.92963621594909585 -6.55829289967250872 1.41392376394098673
0.0550984050190071739 -6.55829289967250961 -4.8829238013744618
9.32699105433506404 5.94215362622875176 -8.6876559660265098
-8.7385230209917566 0.704105150042675376 4.32643884011806268
-4.80941466581362143 -0.0301649440958776036 -8.68305019774731868
-8.1667573165670273 -2.4978634316539079 6.16403834365286496
9.16573953159082144 2.70520850202812246 -0.953584483620968149
-0.790644996807704281 -3.22057628516119854 -8.11333553172490873
-8.68156984417375277 0.385093598949321325 6.00681891201231455
-5.05363424979253928 0.24601865358997968 -8.73236759577405941
2.25376656101450346 -5.77795336150298233 -7.65665682403296799
-2.10753037103043184 -6.5113657106905416 7.44437104312590581
3.44170164824659652 -6.55829289967250872 5.97220001788078747
-6.53079154087507696 -1.02188701737841448 8.42458274949080277
8.43892905752770517 -1.36539780926679755 -1.84082367103413747
-9.14774462391231857 4.56735263711214756 -8.81309507507908485
0.422251696741745453 -6.55829289967250872 -5.45663582871150687
-7.73609833577612793 -3.9113344462976638 -7.26776175562233639
-8.08544249590114994 2.93547381373310445 -8.68863930371645132
8.28228983800712015 -2.24247650922659281 5.03067403641346456
-9.72912012713087471 5.24067129889802175 -2.20358155934892919
1.60130202809441546 5.93143552510735272 -9.80474742360363827
-2.24825550423573173 0.0706097981151389692 8.61968402339534023
-4.37879925594317854 -6.55829289967250872 4.36144381786913815
4.01476819127929208 -0.739063143056539085 -8.5564645086985891
7.02245064827232479 -6.55829289967250872 1.45687654246397624
-8.38830143619122737 -1.25710282719468602 -2.85402192319567716
-5.18620708970845268 -6.49783151079500509 -7.52810596387408459
3.02735418676315682 2.22205976075014222 9.0038374970488686
4.07518633920566131 -6.55829289967250872 2.13371207256663808
9.3048882936885029 5.11950826992680685 8.21477890742201211
-6.90482120648121267 -5.68998928247936053 -7.59630078394874886
7.09410348343459685 -1.82933435589256521 8.20252367923328407
-4.53778851186133014 2.13488883093291948 8.98827263796663445
-2.51014567595561733 6.16756680137603031 -9.80474742360363827
9.32714873225208585 3.60921365754037105 -6.23022506784500596
-9.3849925303587618 5.22301233080859717 8.41483649134056577
6.79347088307426805 3.57448103266129236 9.23509755767735108
-2.03776511243732994 -2.5544631667098523 -8.23228540459471247
-1.74609605309165583 6.22612124567089253 9.95934109574618631
-9.3462071067955943 5.35880860553275529 8.02461719115840744
-2.32018375771411378 -4.60643043437003197 7.78453031029011733
-8.62456173936272741 0.0659358871124285095 -1.09021496866849632
7.76003644088404521 -5.16716304106929414 -1.07367128473047924
9.99133868608281439 4.43537862107570113 -7.13223350666836353
-7.0903739818391891 -0.677963420258382077 -8.47847743561995237
-9.2576538069481682 3.61117416771699862 5.88148614092599065
0.0075355829328596349 -6.55829289967250872 3.97133681672564842
1.95374120338086321 5.86956503737026924 9.72346026416813025
-7.92312515057159494 -0.36362201700330965 -8.05259472599352044
1.44895127382030586 2.33461043526296486 -9.10532686984144135
7.83749676328262446 -4.73338904895399004 4.75958553355313452
-0.31539757967503812 3.63182829095427007 -9.33696910774218303
5.37103651971311358 -6.55829289967250961 0.712319897944756586
-5.87967248435387901 4.76634740376356536 -10.0406589042538101
9.82225354844997511 6.52582152835961171 4.78487596801296089
-8.19279165818324095 -2.35198303303041456 2.74034395720588275
-1.46102450320606314 6.49414646603699008 -10.0406589042538101
-8.69311156611986924 0.449806547307423754 -1.31004799324318855
-5.07709708169302321 5.96692406402936548 9.95934109574618454
-1.95990057618335078 4.50816900475072302 9.95934109574618631
7.59302087076239651 -6.10244201169247891 -0.992399326819085936
-3.6932075677990035 2.90085645262742498 9.12504045859477131
10.0349674634591874 5.03780670081690829 -6.60893105266621106
-3.09330579650566273 -6.55829289967250872 0.640055146758183868
-8.2244654069333496 -2.17460591714165474 1.56862269600965187
7.38112466456172367 -0.100693970077584447 8.4304586290439687
4.15363473178805709 -2.77278201208719466 8.11196007198014257
9.79908756064089381 5.73902720716732517 1.8692544313697308
8.81822055607528377 0.758857586359564351 -0.832061949484259045
7.53891870447761736 5.78771578003250475 -9.65669877979679647
9.03050435508051486 1.94779630823076433 -5.20687058598174257
1.07024015658797222 -3.29874531436179774 8.01804019255905231
-9.81156557161392939 4.4086092042028584 7.51817426911511877
9.79908756064089381 5.66419741790017284 -0.991250549525832025
-2.80286293380163221 2.56550155728125473 9.06516095863365301
-3.94365594934407016 -5.5906621870758455 -7.69010198637947706
-4.57677164754390287 -5.81079163687410993 -7.65079279197525874
2.65180347262114857 -2.52957482534741374 8.15538893774731299
0.499229598520437801 6.26272415234148916 9.95934109574618631
7.29879299280866434 -6.55829289967250872 1.12312800820319003
-9.16006354338334461 3.0646806071139765 4.66227118254395911
-1.30901002924741405 4.06925083417907452 -10.0406589042538101
3.67095564708548583 1.43794155705016125 8.86382878806760743
0.984307077721469081 -3.60414232242479038 -8.04484096210022592
-1.53444716208766563 4.24399602913935414 9.72346026416813025
1.3353214731009615 -4.11932065925958657 7.87151221785925159
-5.70278850265736992 -6.55829289967250872 -5.80689548945517586
-7.50111826203593868 -6.22544408475296329 1.94523130679426415
-7.44377001359768009 -6.5466017408771302 -4.08843692706531758
3.82380990268841803 -5.63595833721813211 -7.68201224974386676
-3.37009365554442519 0.552846941575969697 8.70579017366729246
8.83069392776251938 0.828803963783292796 -5.58424537083503481
-8.81999440217463437 1.1602769208981305 5.77010205412472477
5.93167208228828358 -5.50320126866542125 -7.70571791008537677
-8.93922362500995504 1.82800402784651128 0.967463571525891908
0.981344700258080627 -6.55829289967250872 -0.24509013663928178
1.41796262370150994 -6.55829289967250961 4.47552272916551619
10.0349674634591874 4.30796548773318655 4.59572339239481042
-9.96503160778104835 4.35901871595174217 -4.78272365274124134
7.97692278354938278 3.64248498870055792 8.87839508348615603
0.406160035857155488 -6.55829289967250872 -0.646630576434779281
-0.377022338029428472 2.59964412193361083 -9.15265353592927156
-7.42726794033228011 1.9631395328869603 -8.86217714220417108
-8.25367674902968496 -2.01101859903899038 -0.56000944541699138
-4.20489936384761087 5.02618450235723646 -9.80474742360363649
-9.96503160778104835 6.0901136173328565 1.19081660081804452
9.79908756064089381 4.59324556880554979 6.13171292797956102
4.29240535282353886 -1.94455861429219268 8.25985233689909926
-3.44001414007876605 -6.55829289967250872 5.48127942158753534
6.64349777532414354 -6.55829289967250872 -1.9067711593105825
-8.93032523387809185 6.43878693255802403 -8.70322911431798296
8.98980887364578152 1.89885398464752475 6.89321163296717287
-2.28107339593562308 0.0796668313630091718 -8.70266498814156009
0.582164243551150706 -3.0982675801704822 -8.13517657419430051
-9.72912012713087471 6.25898955902322296 -6.17076317981927414
10.0326504098815725 4.63701284771480537 -6.70057917109038215
8.67827263170904395 2.96382931951836293 8.09586668155860245
7.88325826670424146 -4.47707927550542273 5.81480196489212897
-8.84815689061359123 1.31804143409142727 0.728317756845163311
-8.60547955006111565 -0.0409254381743903647 4.27054053628631181
5.23626618312349112 -3.93776348154348854 7.90393204969944119
7.6244721958553674 -5.92631613949827329 -1.80228766719864986
4.31460483596556532 -0.602597404941266124 8.49947536417357874
9.79908756064089381 6.12430141170297393 -3.93992863120373826
-9.72912012713087648 5.11442667493059577 1.08011653247902273
3.0631980581967726 -0.32164548961661843 8.5496446388137155
-8.15970433234868153 -2.53727636459369332 -1.17017961208509669
-6.40298722577537482 0.0349272256383536817 8.61329090635342887
4.05986567430719081 -6.09311095572612427 7.51905769138382052
4.36487915542731919 1.22596692513612804 8.82597952706203337
1.6587177612858941 -5.72797513696880856 -7.66558158964698411
-9.72912012713087471 4.48893308728818408 0.524772363197776204
-1.20556777999635178 -6.55829289967250872 -6.19641824706148991
-6.25199722021698001 -6.2209903288784405 -7.57754234709779606
9.59466842892517668 4.47308818252879092 -8.27751137382322
-4.72894867600414148 -6.55829289967250872 5.26689939165264231
6.31081232175306805 -5.84267355377973985 7.56377651683770047
4.02050137497117355 -6.55829289967250961 -3.83191284471396854
-8.56756367054233614 -0.253246339057717651 0.625526379941953481
8.4722875861995206 -1.17859169092134564 -0.6139502030898073
2.94304714508421661 -4.37789196818474124 7.82533982132325789
-7.46014561748089911 0.971097795742792202 8.57039299871580695
-9.96503160778104835 4.6980174300510118 2.41841747520120309
-1.18310054363223571 -6.55829289967250872 -4.48368641443905513
-4.38624123178137992 -6.55829289967250872 -0.842464966849122976
-4.77994540680974378 -6.55829289967250872 6.56366398373841076
7.43995436642809693 1.65659052210292801 8.74252879249493375
0.596775557488405495 -6.55829289967250872 2.82873507359397935
-4.84140361550361398 -6.55829289967250872 -6.71411220669929776
6.05027980768577311 -6.55829289967250872 3.82028103667484098
-9.72912012713087471 5.43723056758449275 1.91872528717891822
-9.8612713128532441 6.4628605528036287 7.35336535709187711
-7.53859631270188757 -6.01556212260486145 0.857080489583598948
7.52087652577235666 0.669963847411894076 -8.59625627077679866
8.33462454664106822 -1.94949793539488203 -4.10315622966189242
-9.72912012713087471 5.1800044324189134 -0.0727835280491448966
2.20835638267350465 -6.55829289967250872 1.77099698863306898
-8.56041293192844677 -0.293289602220452084 1.51923074007120551
2.53592926879377867 -6.55829289967250961 3.64204817165729278
10.0148725398681382 3.85159584145209788 -6.97113600282840995
-4.42040573108115264 -6.55829289967250872 -1.84209110029589773
1.14163829096998271 -6.55829289967250872 -2.19364053478745324
-6.48519155102314393 6.15041453986087916 9.72346026416813025
2.62267773573397323 -3.87827445311063856 -7.9958883425054923
-9.29128988595979521 3.72208945586099826 0.688225080732452588
8.8110790532428318 0.718860142891695419 4.36220957424486677
-2.56913882929472637 6.42852669279552824 9.95934109574618631
6.4237469462652701 4.90789632626086281 -10.0406589042538101
8.7135956925764706 0.172884695036086639 -3.35985822403336165
6.14266487130374994 0.6718099197506604 8.72701732806904751
8.65458142502442129 -0.157463686271670983 5.62595018825400928
-2.90123449343586737 5.12788898358922829 9.95934109574618631
10.0349674634591892 6.42776620872413051 -2.91370250901118899
0.166724621924833477 4.17396930862457705 9.72346026416813025
-3.56900513551247078 4.46530563880875331 9.95934109574618631
10.0349674634591874 5.55831734253253273 -0.762913917325500623
2.22214707058372385 -3.23162633735057758 -8.111362289843429
-2.84511793493059661 -6.55829289967250872 0.187898496481790356
9.79908756064089204 5.5185170660559324 2.38544925983675338
2.96036040813485046 -2.63881591784929359 8.13588204403204074
1.13024053916248945 -6.55829289967250872 -4.69533456555477446
-4.39663379519090824 5.56541535800613651 -10.0406589042538084
-2.23787275908602323 6.27600821782889629 -9.80474742360363827
1.1265651927411684 5.36507640933857921 -10.0406589042538101
1.90076744848101731 -1.73490815003477894 8.2972904696651284
-9.96503160778104835 4.05469833781700917 0.0724259448630100861
-2.55843125260030391 -5.39962069912114995 7.64289241711157263
-9.02745324153938178 2.3220496879670649 -6.52156820507139123
-8.52334411635079192 -0.500870443509131569 3.24161321510188083
-2.12530370959548787 -6.55829289967250872 -1.97674471046094657
-1.12519674900784317 1.48197499452396153 8.87169120562611191
-8.13008727922298924 -0.692940229025060472 -7.71758186002006141
-1.01607438534582539 -6.55829289967250872 5.99752385095921614
-5.99364871010200861 -0.376349646461075937 8.53985668762710581
3.84922739376366252 -2.93170293828961359 8.08358198141399242
2.10485843551784813 -6.55829289967250872 -5.54159521907278485
4.47341330928731296 2.55133531973546201 9.06263149736040674
-1.58387815975596347 -0.591457301145958403 -8.58282336301936866
6.50223986006891685 -6.55829289967250872 -1.43032408659299604
-1.8694726407526896 -5.59425741758903516 -7.68945997498436196
-0.711208590880916591 -6.55829289967250872 -3.43873818854103286
-0.698963851664957669 1.97067567909614527 -9.0403395887934046
9.79908756064089381 4.22272707728699981 3.91699733275172379
8.99465361968620059 1.74700695116443216 2.20192514451686705
-9.32521639658609836 5.4313533814725794 8.50428994627391255
-2.6957046691195341 -1.08501059635612673 8.41334096142679755
-5.05336946419396948 -6.55829289967250872 -7.37545558844565186
9.98088848509896032 6.5258215283596126 -0.821002214668345887
0.982578174319306497 3.72208945586099826 9.42077773671350727
1.28100558438506984 -6.55829289967250872 -6.39659862687328573
-7.4800793852963432 -6.34326453306968041 1.83128814037404042
2.47189580494436445 3.13155900991779479 -9.24763677601095679
2.11143387509001856 6.03354555997141606 9.72346026416813025
2.78976147261682206 1.72869639878545822 8.91574469797675384
8.19938427241578616 5.21120395735866104 -9.63599879538328885
1.36408342198733092e-06 3.72208945586099826 9.64441659400999463
-1.09303384858245467 5.57836830133035377 -10.0406589042538101
-0.561530759413837455 -1.57212665031202237 -8.40770426440121632
-8.97102462879410112 2.00608576626916912 -5.08557047102497872
-8.61070146427538852 -0.0116799610954765633 3.01536209081019857
4.6113197901453109 3.72208945586099826 9.84722649432361408
-4.191387821920463 -2.76989395208982492 8.11247578523530777
10.0349674634591874 6.02541140824627774 -0.574742620711171548
0.753587998313107077 -6.55829289967250872 1.45233921930075183
4.49744139294392653 4.67772464229242146 9.95934109574618631
-7.789436405451303 -4.61082495201631293 -3.74567644784340281
1.80021558367697909 4.62697590254602975 -9.80474742360363649
5.45834196820386808 4.55151557922555394 -9.80474742360363827
8.36993718072709214 3.09684167703110091 -8.54398784743536943
3.73125256262791494 3.32283498347323825 9.20038709516404118
0.664134614070447049 4.64810624627567748 -10.0406589042538101
10.0349674634591874 5.55505237314109213 -4.14192462769658043
1.99368531707248442 -6.55829289967250872 0.943978802456710175
-5.20988718533936179 -6.55829289967250872 1.67338007859477944
5.14116833438263043 5.02672579146863097 -9.80474742360363827
-8.10319494211211477 -2.85373630559642777 -0.841446672469066015
6.61304928054868668 -6.55829289967250872 1.12877152880851361
0.342283599041016573 -2.40221312261717124 8.1781315810297599
-3.77619251965319114 1.59140253679165977 8.8912301078574334
-8.48927536986845865 -0.691745472356322333 5.11866853267175692
-9.45291441338388871 3.72208945586099826 3.74659523580930864
8.46037690463998437 -1.24529092130034225 -2.67548719484830633
-4.5889858350188355 3.72208945586099826 -9.83368700194971623
-9.96503160778104835 6.21526908543951428 -2.36727389021243573
1.31305134993013306 -6.55829289967250872 6.25113314371657047
-0.295418162760664904 3.7066111224336864 -9.35032296528002504
4.25780612810974279 3.38804377158202819 -9.29343687344153224
7.71682531157536467 -5.40914323794467577 0.906693120713379375
6.59229670075615459 -6.55829289967250784 -1.70344084330666568
8.75257871289262468 0.391406790932154136 -6.19034540769129027
-9.96503160778105013 5.30487455205317282 2.13769838698195613
4.40072378131553776 2.91695424503365208 -9.20931512650249218
5.10725536646401412 -6.29061677277339104 -7.56510836956833632
-4.52043494457142092 -6.55829289967250872 7.02318019534949567
9.79908756064089381 4.4292431931290519 3.59628388780273012
-9.94412555471038218 6.36552959260524265 6.9029679815704803
5.4900159411726337 -6.55829289967250784 0.448324919512942399
-8.51850760574832044 -0.527954312365398359 2.56383516246416221
0.869379360992399763 -0.732128994720811832 8.47635050364818099
8.51029368214911131 4.26365919927711001 9.36610280853136778
-8.3056606498801564 -1.71990198766938285 -1.35085881105285854
8.84602929516083769 1.20356408870500253 -7.06077666596953613
-8.32204855464366311 2.23882003835033228 -8.31008522592311749
8.40996134993984512 3.72208945586099826 8.7400401731324795
2.20435834977498768 -1.38468218947963395 8.35982939556209281
-6.53433600078577204 2.46616926898585254 9.04741696094637327
-8.70645895476329379 3.2728578062815088 -8.12965443604556448
-0.412877087814188859 -6.55829289967250872 7.09567789278380712
9.07839403877802731 2.21601225119461853 4.48987625286733838
2.22568956590064326 -6.55829289967250872 -6.35948465607437097
-0.940426614112152448 -6.55829289967250872 6.8025914469793598
-7.87823741182691695 3.72208945586099826 9.03391419162160503
10.0349674634591874 6.36696507079808871 3.88030718774845029
5.15748583712649111 -4.50538901617680576 7.80257300979444324
0.534896798640473126 4.02778840616114042 9.95934109574618631
-9.96503160778104835 5.68130468662681842 6.54779856561320539
-8.31314207489906387 3.70661940404532153 -8.67729330046973324
-2.93010754045867783 4.54928688742373488 9.95934109574618631
1.00654685718348813 5.93765607453700284 -10.0406589042538101
9.33544268273035449 5.41680445945415201 8.59369368440448866
6.28399525289284799 -6.55829289967250784 3.89659715067242685
4.31817874415618519 -3.10141369524842769 8.05327717923273489
-4.11234507073873612 0.145610595711480079 8.63307583702047943
6.45356214868966838 4.00157963022647145 9.95934109574618631
4.26073489834076025 2.78941432234346998 -9.18654051467917832
4.88101102434569967 4.85896370380871101 -10.0406589042538101
2.73559320369161441 4.72306772999722835 -9.80474742360363649
7.35696227726901153 -6.55829289967250784 1.01657457479397917
2.8075696743429619 4.61096545722370976 -10.0406589042538101
2.08641239564428727 -1.52646163174831795 -8.41585880752953308
4.40154882116454527 -6.55829289967250872 4.58255697139409346
-0.819352120230788294 6.40305676150327852 9.95934109574618631
7.3702585415937234 -3.66678822779626046 7.71399123261160291
10.0349674634591874 4.16714269295288631 -6.00987311410697611
-8.81789869343791288 1.14859922430600769 4.49390086147395085
9.1049608289689683 2.36480497924005428 3.53503823042852838
7.36939137634214703 -5.63152476552032066 -7.34460021932286633
-3.48508579355873405 -6.55829289967250872 2.74361300986357914
-0.652455986161663115 -6.55829289967250872 1.60339319994177654
3.32501762286008962 -6.55829289967250872 -6.8495903386881718
-9.96503160778104835 4.45186439173661253 -3.32442677447563018
-8.98887541248089761 2.10604797540974475 -4.72642867459217175
7.806943282153747 6.14055326767387477 9.73361345003715783
9.50073435557368562 3.72208945586099826 1.99935947304184447
0.876456881192667625 -6.55829289967250872 -0.846896847362636596
-6.61983292770399778 -4.60961347425542112 -7.858632979770662
7.64466977217754273 -5.81321070640644866 5.57024913845671765
-7.73565136909204298 -4.91206249550676155 5.89023605131343508
-3.39221506390908756 3.38313144496876506 -9.29255968667987453
7.56323230362175725 -6.26925652121002308 -5.63495697220548308
-7.61256212812252908 -5.60134392831459937 -1.84861766786223192
4.37374880393620913 -6.55829289967250872 -3.01186167645543756
8.41168958829686275 -1.51767690759933727 6.07658400388294506
8.37145688901536467 -1.67616526555963974 -6.79450731047173306
5.24351399525287487 1.50289645784323378 8.87542685039944779
3.96455580696710319 -4.47322013554034381 -7.88964495486183992
5.17820345039624197 2.71060374552475691 -9.17246742872492682
-9.96503160778104835 5.71694061350902061 3.58349368892926412
8.75454363747942921 0.402222013777851439 -1.69570856413714477
-5.98957559126316408 -6.55829289967250872 -5.51935977448713633
1.22073358550768774 -6.55829289967250872 -6.23526779937700137
9.15374308014932936 2.63801992847387856 1.17711392780554025
6.09911590932057379 -6.55829289967250872 5.70602952503156313
-2.98984965982391637 -5.46090860139693479 7.6319483980767453
-8.98713724517613066 2.09631445072595479 -4.51633560157904324
2.71968946657838284 5.44762371865626704 9.72346026416813025
-9.72912012713087471 5.84932873091063499 -2.07191727049134311
-4.7450631444206115 -6.55829289967250872 -4.77958597392660511
-6.94108499800001866 -2.9502285673108859 8.01934445471959201
-8.26155778767850713 -1.96693916729519347 -5.58272912101150087
5.71361456015979208 -6.55829289967250872 4.10370931532061878
2.29146139842223695 2.9588608459682697 -9.21679832508838892
9.79908756064089381 4.22465199255475898 -4.48937170105138161
4.88437920357777156 5.73718916552980662 9.95934109574618631
2.74522239991245476 -6.07023367278616721 7.52314282744922824
-9.25508384023972575 3.59678266793184065 2.96166680022328821
7.03632973808769346 -3.77835831041318349 7.85458424690340262
-2.75066372163104678 -6.55829289967250961 6.02540541002569086
6.7438682408136108 5.84351110054119971 -10.035137897021901
-6.03886468361420103 2.87144897975403213 9.11978958774553483
-1.65700205738136774 -4.37794203662950654 -7.90666116188050516
5.73659768972344519 4.58309014799365766 9.72346026416813025
-4.50465804404391346 -6.55829289967250872 4.19495245535838102
0.336589166036569798 -2.55925476228028792 8.15008906970346558
9.27287775914440537 3.72208945586099826 8.59382553605312438
7.43947905515141006 5.78147814397106785 -9.69044761742109806
10.0349674634591874 4.77832558482815362 -3.88705373357474837
7.3104685035032082 -6.55829289967250872 -4.97128271590043269
8.12836253025951905 -3.1045550729987812 4.57047994277218006
1.87002261200184372 -6.55829289967250872 0.625640345947707788
1.21968398174092285 -6.55829289967250872 -1.45977048198921633
6.7004940044599568 4.40949950602715557 9.95665232703464476
-2.18277349555662026 -0.564730937100514474 -8.58759584957686961
8.78481084389443545 0.57173967776493495 4.50039722163487177
-5.9997101827123025 0.635995137811639077 8.72062291780174625
8.8287645889862123 0.817919432650408007 -4.90540728402358361
-8.27103331293211674 -0.225866199112971566 7.57543466673894805
-8.38811866280071605 -1.25812638197266824 -2.33694005649596814
-6.33749888919059323 -6.55829289967250872 -3.78688411343920928
6.998628030956624 -6.55829289967250961 -1.41445732163446403
-6.46153103019291386 -5.08831130545826227 7.69847467416859477
-9.75112249562454814 3.72208945586099826 -3.69835997376477676
0.786569841946058834 3.54372996183143263 -9.32123752185335519
6.4977099261626341 -6.55829289967250961 -0.733692531688300065
-5.41432288956322605 -6.55829289967250872 6.26301602643798461
-9.19036182173602967 3.23434726659689575 3.91419587854916617
-1.16821962989666428 -6.55829289967250872 -1.98473034045845775
5.95803283008594597 4.95796507101269945 -9.80474742360363827
-4.88393869806270775 4.17968416461687919 -10.0406589042538101
5.61572695125698651 5.49664694596653813 -10.0406589042538101
4.59452705262325001 2.18511132972233257 8.99724014718162124
2.7029204191342342 -4.28528684839238316 7.84187607327669323
4.28631516672987978 4.02469483501327208 -10.0406589042538101
-8.48188730197651175 -0.733083605834425556 4.62208032413127867
-4.74082070399991373 -3.69395306923591482 -8.02880318019861328
-9.72912012713087471 4.9821120235376215 1.77978540333933855
7.25652804155630715 -6.55829289967250872 6.64689280822288531
5.60968588045774297 -6.55829289967250872 4.82816335775692629
-2.84512211931818282 -6.55829289967250872 -6.00174700103065639
-9.96503160778104835 4.40093339638220904 0.61926119909184163
-7.75380264571013367 -4.81037864491918032 -3.03493698816568047
-2.86487265290282211 5.36785166979589334 -10.0406589042538101
8.27243013876902289 5.21305779567691996 9.24128148794407167
-7.42870106172894662 -6.55829289967250784 2.64319639818612373
-8.35708571164103198 0.807546498287420533 7.778811019960715
-4.30979727875815311 -6.55829289967250784 -3.10388472778480029
8.37457857194236333 -1.72551486794841757 6.03145645591239621
8.12456409540351032 0.878301381239109613 8.15092504179028587
-2.50111546090484582 -6.55829289967250784 5.4384786925002917
0.682320361720294533 -3.5473065902251375 7.97365526122091861
8.78497744174895345 0.572672743034846166 -4.56571137596156529
10.0349674634591874 5.47620998523406488 4.51150082562520982
-7.80354028228069474 -4.53184140590735929 1.61168319895756884
-4.81587252025326951 -3.74100084883540873 -8.02040171316974515
5.09126160252466953 -6.55829289967250872 -0.720946005828738135
-0.397306658522125433 -6.55829289967250872 -5.13666421070217893
7.79892794417217239 3.744524751699712 9.73633395893748776
-0.683447198267526757 4.23757901124199421 -10.0406589042538101
-7.81911555929278634 -4.44461782724700605 1.76525709476466863
-6.3889196950423699 -6.55829289967250872 2.27870250035888899
7.9499648421574971 4.618553305584574 -9.75898730310287199
-3.27261593274406959 3.11928711414117465 9.1640424799432818
-9.72912012713087471 5.21190446564786036 6.51865089141469856
-2.65619491968624821 2.33228733274699573 -9.1049120369255121
10.0246568661840261 4.84856275778485024 -6.82223085689603526
-7.57999696090784347 -5.78372926030978807 4.52254333831637645
2.57493407541570374 -4.06740980594186485 -7.96211385953664674
-1.13856777877104731 -2.95568688196527818 -8.16063764898085786
-4.12688313122338446 3.47316869355923341 -9.30863750249656263
-1.79705687169602868 -2.38029094698773047 -8.2633878747600864
1.51596689560568576 -6.55829289967250872 6.0025171085173552
-7.62715056109410217 -5.51964680473603497 -1.58802968183345672
-5.69219374949201917 -4.85080673102109916 7.7408918466643124
-2.32777874329303414 5.28853800218949566 -9.80474742360363827
-4.44605761210363415 0.460785225025366618 -8.77072072544563675
3.88462100739993987 5.42370175298121016 9.95934109574618631
-0.680762333659486463 -3.74379872528900703 7.93856817899943845
7.19991155725901066 -6.14808270957090475 7.29299002090359405
-9.96503160778104835 5.87537835622814875 3.9720325245978243
-7.60778819090194069 -3.82244889688322109 7.40166606238432667
0.589014259416730246 -6.55829289967250872 5.41255582362188647
-7.74154711981752541 -4.69691119021289083 6.77933149619851694
0.22065034591248131 0.672630791646016801 8.72717825281910287
-2.83529458436010362 -2.28047596658516616 8.19986986384558669
-5.47873739744872346 -6.55829289967250872 2.1302847338700408
-1.90530704203470247 -6.07546598723135478 7.52220850686134579
-1.2939170015335999 4.3047005074104332 9.95934109574618631
3.07003124594211263 -6.55829289967250872 -2.07066555637046923
-5.25100494953419439 -6.55829289967250961 -4.14439693800642939
-6.32800689424127061 -6.55829289967250872 -0.940221318862867528
-9.72912012713087471 4.38661171410358008 4.69391399198202564
4.24813105326129126 -6.55829289967250872 -6.64855834637416088
-2.173706224166569 -3.04728877622840066 8.06294212324318771
-7.31911053871983341 6.2688028398337341 -9.9448440333829744
-9.96503160778104835 4.92765270495324792 3.46995155046610959
2.06805575858682733 -5.92574092146063247 -7.63026594389301405
2.085692681870424 6.35843868503084586 -9.80474742360363827
7.31240389345745179 -6.55829289967250872 4.03314660632833188
7.84865230005493508 -1.71072260901530315 -7.85928492465323636
-7.8013377315998822 -4.54421798813418221 5.37005108007718501
9.09114099576036772 2.28740418413226765 3.20175816717049022
9.79908756064089381 5.54638069666881073 1.47987826193321603
-1.25063536051114665 -6.55829289967250872 6.95660871516430657
9.035379285279312 4.49279698095100599 -8.66326488891829527
-8.91948671979943164 1.74605510343479353 -6.70913811958549289
-7.36238183622142639 -4.2437545515213575 -7.6227836388416641
3.91049428182764247 4.15284462168472945 9.95934109574618631
0.193919734083860734 -6.55829289967250784 5.23245632990764431
7.28539263862302811 -3.93466845727781189 -7.79447212869544792
-8.1340435211987181 3.72208945586099826 -9.45066050206559005
7.76691225684175546 -5.12858896185935009 6.34628249490383656
8.46537510001515514 -1.21730127325698967 2.21873434876702902
8.7008371525747652 0.101427889035569749 0.113382153237176514
2.60948102678234406 -6.55829289967250872 -6.20312468206943102
-3.92460644944531412 3.72208945586099826 9.4886740700976695
-8.12398057908625759 -2.73733403292979594 1.38298338759111683
9.04214566896848027 4.16618735015613861 8.93196632734611917
-9.0118599475133685 2.58163688609193187 -7.13662546726026825
-7.82142684630589269 -4.4316752704936393 3.61731012195387569
7.5824752503969135 -6.16149696658577728 -0.875227510135865416
6.43798265312210649 -2.21270299653267077 8.21194995481656953
3.75875502798635752 -6.55829289967250784 -3.94918495223487565
5.39933091982977764 -2.97573846847489332 -8.15704936235504441
-2.62066134341853063 3.72208945586099826 -9.7440708753822296
-7.99911657798062858 -3.43658869233829556 -0.913198024163558331
-2.43106882467853413 3.56287582186109653 -9.32465636923072161
-7.66411950294630362 -2.81688438963739074 7.60975737729816526
-8.74443446699740434 0.737208525911667856 -2.44982765777090972
7.83849726124478163 -4.72776587611251653 -5.79612859982236639
-8.85603109863441418 1.36213603760041413 1.26773388261345166
-6.49270592953859538 2.72006918789406305 -9.17415546406413362
-7.61847036580552217 -2.18938720450597257 -7.88612839360407669
-1.42452159959432545 -3.7490177082587639 -8.01897011787037428
7.27281200051555032 6.16188341828833064 -9.96796993320788083
9.20447346745460315 5.75380809081053002 -8.44645853079761544
-5.79922029455456389 -4.70462441508496099 7.7669933540179521
9.08163918309615781 2.23421996421556024 5.91510651243575936
-7.17997994706919407 -4.90865977578649204 -7.60900696659973708
6.37043312557113151 2.95828480813162775 -9.21669392768020224
3.27320553629629751 -1.029861708402797 8.42318865551430918
5.44635433519692924 -4.74983665495769447 7.75892263977854402
-8.02571577621996823 -3.28762971985066832 -4.70503458230348048
-8.59761626453826722 -0.0850208882583225328 -5.94177145883605551
-8.14416762456676047 -2.62430087697680392 -4.94864743025129616
-2.40002591645370966 -6.55829289967250872 4.44744287361328805
9.86022269520368866 3.72208945586099826 -6.45741511865542073
1.46690423738443854 5.32134534697967254 -9.80474742360363827
1.15183268406959671 -6.55829289967250872 0.882046866999624091
-7.98780372259471605 -3.49998144077103923 4.14597500759037896
0.98047884148524389 4.74338664014265188 9.95934109574618631
-9.72912012713087471 6.4815943317844118 2.45472676534799295
8.75462112924281932 0.402656022206909214 -0.952825962508683344
-6.30870575919640153 -1.32336616890392755 8.3707523104032866
-3.29655194335379953 0.836043018310200448 8.75635642363448241
7.18548621595111925 -6.55829289967250872 1.8435962018519525
-4.40996686738882904 0.200607807075535216 8.64289558534091995
4.0580305293347525 3.27835995636175159 -9.27385079982432892
7.60053618907770812 2.85501553034236322 8.91076735573370904
-2.09351164964836656 -3.96564981309547226 7.89895281548242068
5.31354814243621032 -6.55829289967250872 -1.5299015799593394
0.0457854932482947077 5.698416528164997 -9.80474742360364004
-2.53704669126668803 4.59715209684921344 9.95934109574618631
9.79908756064089381 4.6838785571291579 -0.479765247707500064
-8.92179929249333092 1.73042989319100071 -1.84017700847231036
-0.919718741589658273 -3.28339645227079346 -8.10211754083963775
2.18653241591028769 -4.86135597401925157 7.73900892915636351
-5.15645922683174973 -2.1649438771151539 -8.30183923998135498
-9.52871547789265527 6.21164716128174188 8.18792598334469979
-3.90121850899475797 -6.55829289967250872 -1.48091473728934497
6.04601987108962202 -6.55829289967250872 1.00757834789378675
-9.72912012713087471 5.44221038548033675 2.68156679630129124
4.79329563530685654 -4.21630008747124929 -7.93552108621605168
-4.39342932471831205 -6.55829289967250872 4.78155980781167145
-9.72912012713087471 6.47655367651090508 5.59404733821873279
8.47558984243235614 4.35256822052878967 -9.47058334491423004
-9.08633990425137128 2.65183722932061805 -2.27767699632491594
9.79908756064089381 5.19259407898066705 0.646736989890908776
-2.00993172967789802 -3.58551856524176538 7.96683184964356528
8.74783708898074686 5.2755444749653817 9.19428448372002372
-8.87175560234617322 6.5258215283596126 -8.97782121088976837
6.67282300111015214 -6.55829289967250872 -0.786994781100303076
-9.96503160778104835 5.96491817713386041 -4.93782141155116516
-4.2427032916746521 -4.26919696328203901 -7.92608010483717962
-2.70041138441039807 -5.36569159087651482 -7.73027567921946979
-4.5883669298763623 -6.55829289967250872 6.47894178069526028
-4.88726421966272984 -6.55829289967250872 4.74714369899161337
-0.716138826452553223 3.72208945586099826 -9.79967515439126835
3.28261248147845208 6.5258215283596126 -9.87371019839094188
4.64185931294881904 -6.55829289967250872 5.92720591137222108
6.08805368120885415 -2.23581181019499908 8.20782718554757906
7.68864792973967859 -5.56693518907198914 2.28789081113206638
5.33252959914991642 -5.43887255154934124 7.6358833173679832
9.79908756064089381 6.3182446488049635 -5.84927808169631192
5.783167012387608 5.26838502431861055 -10.0406589042538101
-5.17637564286897511 6.5258215283596126 -10.0358396604768583
-8.32158724811334061 5.72051686739734322 -9.52674107469417564
1.311148690906357 -4.78474615156673622 7.75268894305865519
2.54457660568179866 -2.0470772538884221 -8.32289087107517389
-6.88490919194841311 2.17951090235497169 8.96804653363560611
-9.77243501451162189 6.52582152835961171 -0.0533992045443867497
-3.5970631670926636 5.97091171015221001 9.95934109574618631
-9.10951328572912189 2.78160533622378736 -2.7538065736821018
-1.79501220540440065 1.93669134595091519 -9.03427105762973959
4.8214495462732847 -5.47316617565218522 -7.71108130540328052
-9.96503160778104835 4.61226591695046206 6.14684417137275929
8.14909241443946897 -2.98837832219529709 5.3983113958797615
5.2981823378703492 5.23714527566902088 -10.0406589042538101
2.98842956735047505 -6.12922107447428122 -7.59392986573743833
8.03323865849470131 -0.695618737526976227 -7.92443194977284282
1.85828699855180357 -2.17610952875636121 -8.29984918000725891
3.12017235920518088 3.72208945586099826 9.50815119344395221
-8.20388331553354888 -2.28987169126200829 3.65084670264944355
7.64767609395877646 3.72208945586099826 -9.15673354759591085
9.11888306744113564 2.44277931591694619 -0.632625520727683632
-9.96503160778104835 5.6841035190157605 5.07032087050074765
4.10714028218963367 -2.56686299535990337 8.14873048759259611
1.94881123396811695 4.67550396795760737 9.95934109574618631
-9.03224324779240284 2.46091042325706866 -6.92358338083221092
-6.74052341154694901 4.71304345846863093 9.94941675670492565
9.04132389808719772 2.00839336600849849 5.14752666245026358
4.91277121985046961 -3.77841935149791075 7.93238606510487365
3.13098051732215898 0.544288651555032588 8.70426204291957539
1.31475668692027781 -6.55829289967250872 -3.11759767221842399
-1.71691858480020088 -3.55749294043504172 -8.05317128603985388
-8.59773900946814962 -0.0843290375965862066 -5.82786120266345087
-9.11542984695830505 4.63721362922516533 8.39365067948430266
-2.2392697957068588 -6.55829289967250872 2.19897964694570636
8.81252864052781071 0.726978852194625991 3.23171983533625662
-0.624997386368351449 -6.55829289967250872 1.79477435775967997
-5.70795201392925033 4.13833200078762786 -10.0406589042538101
-8.78201501728398171 0.947655019089650663 -2.58696335461085258
9.79908756064089381 5.64448745213466552 0.111211356189816785
-2.70776348798504518 5.87122104761784414 -10.0406589042538101
9.79908756064089381 5.92945285231748276 2.76338325373091864
-7.71871601051271483 -5.0068683691592879 -4.80446525311036687
-1.19363315029159467 -6.55829289967250872 -3.59610033014387298
1.54554392371686267 5.09163830403981166 -9.80474742360364004
-6.20690553912449694 -6.55829289967250872 7.05951606787072095
-3.28232842110639433 -6.55829289967250872 6.58128430885907534
-9.96503160778104835 4.91281960820332042 6.20058412783201085
2.05557800732321283 6.31002986156308499 -10.0406589042538101
9.74172637957538612 4.90005698043791504 -7.17783668475498349
-9.72912012713087471 4.7687644895857364 1.94693577974135956
-7.94460879142000032 5.3669565052963355 -9.46410588626855187
-8.40914805356315043 -1.14035905636283297 2.51247307619355853
-0.642048240188078601 5.38282619946236718 9.95934109574618809
8.92937607130409106 1.38140672493898542 0.17521742411283911
-5.64351568011028615 -6.00830666064641061 -7.6155219253359494
-4.7802785061168187 -6.55829289967250872 -5.08611988109676627
-8.01111349504870063 1.82936658869722835 8.41497700716892716
-6.48542495746879855 4.9078351448493196 9.72346026416812848
-3.81117350301736524 5.09317281479818362 -10.0406589042538101
-5.42928153388391532 -5.49379641604393321 7.62607570777171695
-6.22880850434374445 4.69005759967835711 -10.0406589042538101
7.87976476439053641 -1.88062053032142273 7.6971702824497843
-7.96907894197986 -3.60486496959949365 4.90966602142337916
-9.72912012713087471 5.14812193905344362 -5.5234689076162562
-9.72912012713087471 5.63480399098275164 -5.35889068904756538
1.31246148987485811 -6.55829289967250872 2.49104256325754969
8.83127589816454517 0.831976692998572909 0.965179678891057047
2.65610615993883137 3.68622677496227169 9.2652727403903512
1.55107760452453003 -6.55829289967250872 1.91368319569812151
8.64012908117178213 -0.238365683818472784 -6.00894333148984749
2.31188004631528177 3.72208945586099826 9.4498895664795981
5.65329989794492782 -1.95929803987823337 8.25720648840291105
-1.75398346466594979 -1.07986614225095501 8.41425959302553217
6.0297642702025005 3.72208945586099826 -9.73237049181191338
-2.04522031463154841 5.66127459356474372 9.72346026416813025
-7.3014721439221022 -6.55829289967250872 -4.13275441018380008
-8.32051650429447598 5.49596463515280664 -9.52745649587299148
1.90099104461248425 3.20891851895860114 9.18004667065515356
-9.72912012713087471 4.42136422601744794 -2.21061624274126034
1.48218563120865987 2.11849131030538729 8.9853447685679626
1.64917926037106954 -6.55829289967250872 -7.15776677900619696
1.42753850250402592 1.43570767679113698 8.86342991620159282
1.72224277038733198 -2.13121918425736778 8.22652225373359336
9.79908756064089381 5.42859113469484811 -4.99097310663780291
7.86214151098921299 5.42346931573952595 -9.79610627054158911
9.79908756064089559 6.26223002893763958 -0.25000383396379916
7.78985602712337588 -5.00017482612613406 -5.70313588466725729
-2.29980813566660514 -2.9897609326021235 -8.15455294072464731
-4.98727177324840643 -6.36059006264885518 -7.55261359231924523
9.79908756064089381 6.05838603587841984 -2.49565631223320716
0.314482243869742384 -6.55829289967250872 5.59423015498117415
-5.00185491576033137 -6.54851022381792092 -7.51905610987136441
9.79908756064089559 4.82091527920639784 -5.09974737012923995
1.54694118648212919 -6.55829289967250872 6.69126754273663416
9.79908756064089381 4.52524294811288197 0.988997871289248542
-5.73706846445539043 1.02132972421530055 -8.87081291750495637
-1.10744066594735724 6.14474834068055564 9.72346026416813025
0.560806223740313747 5.79731586603728655 9.95934109574618631
8.66345240200799971 -0.107953032940632326 -2.56783222175013881
9.79908756064089381 6.24945598677721481 -6.29107523367748467
6.46804567077666004 -6.55829289967250961 -6.84238308347119251
-7.65858171376980401 -5.34364463369624865 -6.36184561426977968
9.79908756064089381 6.29284533975812632 0.714327669620218098
-0.700946521548399537 -1.83590352734855466 -8.36060081437093139
-9.95094610177997474 6.52582152835961349 0.919988829528699537
-4.05740753771517149 5.07105124778936123 9.95934109574618631
4.01484994829417197 -6.55829289967250872 -5.01503500948659742
8.43659562749068748 -1.37834250898080812 -4.90710447481827927
6.00711851804493335 0.496944609066048482 -8.7771697045973518
-9.96503160778104835 4.21876944174298085 1.94233857413944211
10.0349674634591874 4.25663635694491038 -2.09454137625491477
-2.17214973407054801 -6.55829289967250872 -6.12739681654137591
8.59217540784440637 -0.50715437914225403 -3.90759975555176808
4.35031180634414572 -6.55829289967250872 -2.39213830283776829
-3.3891011013063177 -6.55829289967250872 -7.12972445110354602
3.98908423018625014 3.3566337483505313 9.2064220544511759
7.96792708010876716 -3.97836672959451354 -6.66510402897704779
-1.47742429479005888 -6.55829289967250872 -2.9577799474957982
7.79650313549019458 1.29825981502304466 8.49549472545906603
1.63639110509093855 -6.55829289967250872 -0.910083352952607672
-8.85789609138834244 1.3725797693146593 0.311909207624145646
7.99086784413101103 -3.87451854655255135 -0.62304600148616851
-4.79864347729225837 -2.44104432227502555 -8.2525371454538341
6.5557906626910647 -4.74356503242547056 7.76003300334205015
10.0126761012180499 3.80635626566985641 6.92324522927077091
