ply
format ascii 1.0
element vertex 775
property double x
property double y
property double z
end_header
5.45786045808038445 -0.402114456915038609 -0.672191421667371669
-2.37502491431581531 -3.1434124430613597 -0.679572412998471043
6.44746004323256372 -4.73123700535648251 6.30874973977962572
-4.76040545764919987 -4.91843162034057446 6.72925911426874457
1.18663035641485082 -3.05266678536722047 0.0532092529000436007
-1.70297702198839418 -6.2562918749426224 6.34304833312314997
-2.91208285165646164 -6.22794260988436754 -3.07368508564835885
-7.26314903208670515 0.82413638700290015 5.37533275755932927
7.22389362595230988 1.05444247112266254 -1.17293115592743713
-6.17232421865103298 -2.89719492162764691 6.19839480300905166
4.05933979605299289 -5.02177438901552353 6.80330899839991421
4.41397088173025676 -6.26912573958622765 -1.91365174019847628
-5.01988392422515695 0.405344463844595659 -3.28124474984158354
5.36170629774773566 -1.79176414380517124 3.24223303261386153
-0.37391962016450242 -5.64915250914929068 7.09683919342371006
5.68747864019988469 2.50308042992030888 -1.15670360752762269
0.452725298056398107 -1.82401160188912503 -3.81892762836741406
5.4737599046611054 -0.991888975246138282 3.96996218484471752
-7.35260384488304553 0.208871823344373375 -1.87328711223007249
3.69442966929219008 0.0265748131267133439 -3.50853583068627151
-5.42662508987753345 -6.22144361904702237 -2.75093992757638262
4.89570168806051509 9.42774248413189753 -3.16970023129855027
-1.56934498278368095 -6.31328949532127481 -0.189393162218432637
5.12243669190150541 -3.50172795474237875 -3.40732198383254037
-7.55263930004716411 -1.7292119179207468 -1.32589992550224456
-0.752521308138028311 6.0859179106307737 -4.13462100731620374
-5.34686358056340083 -0.387327227632665194 -3.25441385931997429
3.17500394437401923 -5.66006834339620468 6.94539021975601933
-5.59384757442257285 -0.33577994421692392 3.2826548702090359
-5.54393801720368451 0.280718197331203012 -3.18128377281491348
0.258086699280641652 -1.24751682918760864 5.16539681808664053
-5.59505730195036399 1.86041544334893127 3.65502658424085469
2.54522293092603658 7.7827831595360939 -4.32413064508160527
0.680827407241615612 3.45164023814359444 -1.97341084337937822
-7.21019791289208634 0.404422806724459294 5.53577685059937696
0.513077349013491668 12.2621165466985964 -4.92029435928220504
-6.48790410112345395 2.73765329290674098 0.783124849984638716
-7.2250126129771477 -6.12386544522788867 5.90195229672076138
-0.00384860206195112046 -4.016840055633776 -3.89210699351770639
2.83065021459777677 0.649161377873748058 -3.5846652232105618
5.49053583926050592 0.949667549237146913 2.78351638837744675
-7.12309420159221229 2.35290394598811359 3.35601790870498107
-4.49298419053456755 -3.03409313453036411 1.27889842664908837
-0.697611579319422526 -5.56233620766036196 7.09334789283316169
-5.90866732695417873 -6.29596903634146798 1.62945477780927983
-2.43175886532115371 5.02949781526656281 -2.01906693529052594
5.69193014218902338 -1.85638002998071472 -3.24747816943061896
-4.06041700660341043 -3.10368144684562086 3.79412572057285358
3.79773021364281327 -6.32267606741241739 1.83850549858172396
-3.43273348076731111 -6.22754496174958749 -2.9941174532932644
4.75936840277126283 -6.31063444258916739 4.56365008246992065
-7.58089851691070038 -2.32314410336642618 1.35526452292768607
-6.20785806228295467 -2.61775057391124033 -3.18646203297805064
-5.46328526581594964 0.157763102381998005 -3.20751202732231055
-0.0318070243849227288 -6.32270051642494657 -0.00464189769963470073
7.46723960935148234 -2.20231152241279249 1.43561824299858887
5.4927597610562966 -4.60893359124097923 6.26342644433608253
8.20149705458990219 -5.97886213515652987 5.37272356729054845
5.22111932525188305 -3.54911530880419201 6.35011912124226097
-5.07885115486243066 2.79613722394310038 -2.56701438111656088
4.97233846061429396 7.7996538569239986 -3.85508530514893266
2.95389131668584826 -4.74190741179386421 6.89444281366497069
-3.52158886638873536 -6.30402421603243823 0.0864979045569703314
5.4789024428257056 0.161377683029861857 0.671816040721664232
-7.51534435340575602 -1.25845144233762274 4.60931016025450457
-3.98247928577137245 -6.16179226824197634 -3.60330993057952487
-5.59961956706072517 -1.0679016245066757 0.88411216375959345
-1.59972812199087722 -3.39488324949294418 -3.82241094094692579
-3.19251458042012404 10.2516098506606799 -2.42731839421823636
-3.69704120900402966 6.95049099506831691 -2.05928015889391824
-4.74566236880214198 -2.93455681829355086 5.44551846088027691
-0.254638940356932686 13.4750665310283555 -4.45807414871493446
1.60658357932371199 -6.27667840117912146 -2.23809068089407415
-6.18242030132020126 0.822719179067594175 5.83198403205050031
-3.00532226218796383 -6.3143461793020359 4.02639807470151201
2.33115180415247503 7.34575099294763145 -2.308847395909428
6.53361996019509839 -0.768304368212068933 5.91281373306343649
-5.39571756406566738 -1.42849038483178647 -3.28689844817738264
-2.54134782709686879 9.33987053661199695 -4.48080162211115063
-6.29699409294290913 -6.12458978167670409 6.16761066746030817
7.24640289263915527 -5.31534338397900097 6.21401933802930539
-5.03174327586934567 0.72173004994870793 -1.39955737451770368
6.98661502210226359 -6.23935219820457743 3.2562737010247913
5.44393638773837552 -4.79142017437426748 -3.64509324152527103
-0.00841099779569253261 9.10648281201843623 -2.56015566149500184
1.8632069032783658 -0.955617110750162313 -3.74651089856045738
0.617067561200072445 4.30207252788606187 -3.90047883277384999
-0.0844610641887616198 -4.68506716453466954 6.89117209146956444
7.34116581920138245 -0.424708783780975263 -0.937806882152528831
-2.69125090093061248 -6.31759662074890471 1.46722289253670968
-3.85867590453530296 -3.87334302393154939 6.57233856625358204
-1.24054559519488294 5.09397403158782858 -2.11491973303239877
-5.097321970335849 3.8103417132634636 -3.18925597606083322
3.4288906256501801 -6.29566694875825039 -0.147808351623583634
-7.98482675328083147 -4.64571082377143973 1.99326093767466461
6.81322548480252976 2.61655544069049917 4.44862788605371229
1.04079900421061988 10.3673671781774956 -4.67968686136994272
-5.59372523620037221 -0.0967459189167208244 4.76532893243689504
-8.31384883113616446 -5.58027830455217888 5.20809339832099738
2.13157725751066129 6.84544674268186082 -4.21470550740782368
-0.154418321093494432 3.04538554499926084 -3.69923564194815047
-4.8031628456087061 5.90869525255888028 -1.88933592652064841
-3.56727110900103339 -6.27935729096934736 -1.95455550377689846
1.37578690290813954 10.6601106171995248 -2.67177032370310874
-1.07961130034429709 -0.311531791793123514 -3.75632520673459336
8.24778822943901702 -5.98734886465357441 4.83761979577189916
-1.2077480488635004 -6.31098308052013568 4.73149903613535816
-6.93623995088816603 2.57802901215336089 -0.778037299615299549
4.5160943132778737 0.721125679878713566 -1.48286751435873732
-7.30312838205742842 -6.20327388460713536 0.309491813366643331
-3.78539469251816429 -3.09014404290017541 2.04301693447081867
7.34990316599732818 -4.06626903849480126 -2.73401014515923313
7.25616648240491902 0.437678733839367562 4.13588242014773488
3.23273508092292516 12.2903659790407964 -3.64740939344030135
0.138013546800435427 -1.83376712148662602 6.78688811414733983
3.87774441233825895 5.93640587961596111 -2.03352191230385593
-3.62517511204021936 2.52590087217482795 -1.6935029905408765
-1.03328387942058098 -6.30681467496868642 4.98421712957879404
-2.20756298463444445 12.5891616513630442 -2.73296805602650794
-7.38725683381852072 -0.626855441632564347 5.40101165508966208
-4.10049816230289643 -3.56585318360253378 -3.58205685050701028
-4.77794402676329177 9.13857130160001851 -2.17372083420858386
7.12112938503782278 -6.21842964383569363 4.66909193772603182
-3.15406485368594414 -3.07795761277403646 0.402188560436043618
5.85299280886552786 -6.31042946219545531 3.52768490620908537
5.07995356049700408 -6.25483828459343982 5.55791633259496276
1.80669518720898759 -3.05664566669602333 5.14310238298176614
3.14618554554554741 -3.12017599518030275 3.20505009306716415
-4.52446331936454804 -6.18920668329189994 6.35316430599426596
-5.3766670332274451 -2.21373033340314374 2.53805173200602896
-2.03388287493773845 6.05805386129597956 -4.09324509673895243
-7.80163259601189552 -4.13975431659804727 3.13186198271566285
4.02476159397320998 -2.50710950216394401 -1.36866736759836627
-1.63957876936922742 -6.16192796015731581 6.77734034007538799
-0.566434657749884218 9.97906925298888403 -2.62255043975869429
1.09032719673959066 -1.83135186577649423 4.8256061391696905
-5.59614709693735879 2.08382157008015456 1.34605857371018067
-7.2485239707521556 1.73103354766903705 2.24639169198771027
-2.00715530640169693 1.84024823388455272 -1.79149856835809862
-6.62649691890625014 2.64777885451693829 -1.71330558814766354
-4.83561730525978017 -2.98641134274897002 0.287066758437990899
-3.213929603353054 12.844701975992832 -3.52606186179404935
8.045162011950584 -6.06692211451231245 -1.64460848490677236
-1.72366129719150796 -3.15184168870743209 3.95468536405664706
-5.60525431281611475 1.71260390925378769 5.23841582669995987
1.71821157243749423 12.186993746165534 -2.78522585369623421
2.05103469246311487 4.00451294146539372 -1.98408015996589748
7.37670853959386985 -1.19235426237233511 4.00562770402436641
-5.90464416165058648 -4.43428658073333626 6.24951974733074689
-0.973869206146965594 6.49484293271347202 -2.27226413348715228
3.81857151475660306 10.2481621010558221 -2.42947730196586331
7.06987388893161661 -5.17417714481959745 -3.34400027635030694
5.47361120165385007 0.264851831858851694 0.0296171192673337601
-4.40640454427933825 -0.235512132098031318 -3.42371015496940778
0.207412510798976352 -6.32736050603165978 4.3762562120445283
-7.62809515679301064 -2.6794364056641613 -0.217837811330136938
0.70582229338648006 -6.16948120337812167 -3.804872792470682
3.77109916606620921 4.55123357547641394 -1.91112290371939064
-7.61496699422707213 -2.35467856809729126 -1.23242014367302999
1.46977528390916534 2.66537477094140796 -1.88062238949991412
-6.80563102946555087 2.54990452321273153 -1.7475875760788524
-7.74296583398350968 -3.57465269877864156 4.48252201750616752
5.55675047363977992 2.23967346600766382 0.338597392472314962
-1.56385447684332557 3.23670443724524448 -3.71275749664637988
7.35380397229173699 -0.787376684050417608 -0.429240244787990166
-3.92300922954336251 4.27526696949550811 -1.79760796675495338
5.11849003177669903 4.93058574737078281 -3.10858231558694875
-7.29343665172960343 -2.71678245884928948 -2.66618093025900027
8.19935121312212267 -4.94523991398883656 1.69985729782965334
-4.28406208368275987 4.42059590062234431 -1.7594238212839528
-4.25650388251939216 11.0149102787174122 -4.54657563270258258
-2.8885036534398445 -3.07813377609748384 0.458381825440177415
2.05787572383504846 1.81800659758079264 -1.80167342330072611
4.39663501050227445 2.66960595265412826 -3.43012733918716028
1.16522517576264995 11.7725483573329797 -2.77855050721184815
3.36478409071526574 -1.40838534785822511 -3.60417701899731657
-5.99563274099871801 1.84258668899972466 -2.86704111701747744
-2.61519700244022912 9.2196772427263447 -4.46258730887043331
5.52450847184205607 -3.10071697073725527 6.28674938106724213
-3.91899926917688068 5.12894629514613243 -1.86467980651925558
0.899789958304210269 -3.56179707079452834 6.80916183542632591
-6.23083360529124608 -2.42548694207839999 -3.17297215647297515
-2.04084648159808468 -1.62095653207986512 -2.10789940878351301
3.76140614158060904 5.64673489280823837 -2.02104351782162617
-5.19149802734459875 -2.39703699840726747 1.14441850841278114
-0.0890437956739873471 -1.30775975856531446 4.73979493539656804
-1.8587778260511143 0.771577531660451732 -3.67091603584558834
1.46463544857129291 -3.25929139508552002 6.80491687737986428
0.401881094323378929 -0.186953220860175517 -3.76414364588185224
-3.32414903328061051 1.59904782177750948 -3.41213604079903332
-4.6633028308790605 -1.22871338498382188 -3.4178685787763694
-3.37946748054374524 -0.312766751741147042 -2.01824128820918069
5.5284622738612379 2.72130194432005146 -2.11984985813669891
-1.58205437155055217 -6.32159088493194599 4.22651870062221313
5.27681811229167597 -6.32667603412806567 3.20414734402141077
-4.48394564607334001 -3.04896876413786222 2.57019216007115547
-1.98475372696699015 13.3770820673023412 -3.8909207364333378
6.80526981271453302 -6.22353071004068337 -0.467542407112914615
4.90625232557130886 6.02892026753915378 -3.94414744292784825
-5.59337954269745907 -0.087315430906859684 3.68898843479267846
-6.05448795007066032 -3.03456097833988281 -3.23623294240310866
-1.60259214130828598 -3.44771264270235855 -3.82394649704554501
7.13320675368216683 -6.17218500962471417 -2.21925816563943235
-3.2517870256666459 -6.32216980125024186 2.06201171459602239
-4.92559006220279638 5.56647476416691767 -1.93178947177812788
5.38958500474439539 -1.64071122017534443 0.258007890695213571
-0.912540516071148722 13.3629590522586223 -2.94513496687328225
-3.40595901080309282 5.28464535203237684 -1.93982425424179827
-7.50794439555773963 -6.16804400931412378 -2.14315071578582783
3.65344001781630423 2.5849264781034087 -3.48650810088778851
-1.88836275449940438 -0.432773774867279415 -3.72863023685019268
-0.358734656630148308 -6.29241862116847095 -2.12822663649674082
1.869284387194311 7.76650032023993209 -2.37152254872631163
-0.549572101736132912 1.37097350876955293 -3.6452504585052985
-5.76870630973036569 2.48545432457349769 2.2128541139119946
4.32149694428213405 -1.48504689607014617 -1.7494654466159798
-3.76115590784873399 11.4122790211729477 -2.46175141162891231
-2.86993049142541423 9.2704004506174762 -2.38285986683562001
-4.44855021245285975 11.7558935906581272 -3.37111055447004171
6.62846090949753997 -6.2260833734108747 -1.15703465978415121
-7.47646360989515291 -0.911558992741721918 5.20418518662802398
-1.06036196992651344 -6.32226083337012579 0.227704016951916333
-4.36223573672837706 11.691349333803192 -2.70245742302935987
2.41427513457262855 2.66605069593451027 -1.84268899405945108
-5.59950886993763675 -0.945093772598226245 1.69772329558625468
3.37413835660512751 -4.84766534882784761 -3.95197992230617734
8.28363066174642881 -5.92452237362771061 1.84088061434647821
-0.284655329988903527 7.08438510614806471 -2.35630235392438303
1.70112362562286079 12.7727402276107416 -4.86408934582235641
0.791489833800885667 0.974222655646896696 -1.81964883704135683
7.29432176292037404 -0.538380935269795136 5.29312599945629891
-2.4737411490864667 -5.37048446258519885 7.0073027434282027
0.763537498561141281 -3.03817803245483464 0.489160960045494198
-5.57923479994139093 -1.39899970701437937 5.27184880003767464
3.17747410878447756 9.87406946572949273 -2.48484281398640183
7.4481976010514046 -1.84265049908708889 -0.773154438272089073
4.40906391501281103 -6.25570059655541222 5.80414978473081167
-2.93779332986177977 8.25271376627839359 -4.32363174662583205
5.55914805612291563 2.24779709334649835 0.421641840549842384
-3.01118886820362874 -3.08106623051154127 0.362254501674374285
-2.05598321943371731 3.75407666427042219 -1.94115800027995689
-5.5389899318808995 -1.82076148691972439 5.51968351298844784
1.31651503065291808 2.32601273355838822 -3.5540755016574006
7.16129821575306202 -6.22105895642681261 4.16929903379074851
-8.33373349353042769 -5.59662013590856056 1.23822778010589762
-5.22756017335454448 9.33512394292854886 -3.59090981796267661
-3.2515103236634193 -5.31252573878967915 6.94399599691327118
6.26181506679704292 -6.29180678458619091 3.25281805562523907
5.06138123232552939 7.23441701256773317 -3.3380421814261676
-7.76418818744474759 -3.83455386638736417 0.272763581502917407
-0.527195244562754017 -4.32421233653479131 -3.895926780236457
-2.5102896831844177 6.76449319531999738 -2.18448228509182929
7.16338764735975175 1.49658529313761357 1.89359588847082572
5.86830044474461587 -2.1940283753441987 -3.22931766935693654
1.23873024942778254 2.49733779705813941 -3.58917741367476406
1.27987887353647967 -0.622690099407424702 -2.25841001721983714
-1.95162629355031991 -3.94281640383215581 6.78069879500309103
-5.60086573278331912 1.95856853386762286 4.98319915095337862
-2.44704713173902588 4.01832778028085169 -3.80218790013709018
0.427071679876729837 8.84464227904496525 -2.53087001389066746
3.63361195086205147 -6.2969727910355191 -0.160097989857236001
3.13034261132168101 8.86430524703234646 -2.40765973635234198
2.20448059420680753 -6.25016331390329682 -2.67929997880915671
3.02964308702261675 -3.16439000861933906 -0.739224808673278999
2.8477803408954796 12.2442055239684802 -4.61848625739403928
-4.59745465228446726 3.13327217247091339 -1.63455007548943554
5.09940545187728667 3.96328172628360154 -2.37626605918677702
2.21324385491312592 -5.73939319881613841 7.02723083421918737
7.10835797899052224 1.98696125561699399 4.70267970098866783
-7.15081711861826363 -6.21776947295823668 1.46511679421408503
2.98369247638165858 -1.85796412248651377 -1.93499503210806778
2.53206312322500171 -5.78808265867419802 -4.07800578368185818
7.19693474631203411 1.2640905547939616 4.2536112216128954
-3.18524436848477466 -0.398597419754886828 -3.59444932510140358
-1.93650725237242405 -3.08678969539573078 5.44592246677272129
-7.75679628948714406 -3.71158803596029996 4.49390014762091727
6.83683948962269739 -0.215585562671801734 -2.65222984026961051
-5.22701457979597972 6.5450461677727958 -2.58808955907782279
4.91049225160782044 8.77867343632505026 -3.75873273807342301
-2.43231744384810966 -2.08514711984586842 -3.73278930666775777
6.36212220271463913 -1.26328058636818197 -3.05797004476787704
-2.92516167394706184 12.7809073687596548 -4.53804254821226483
0.753033623153169351 -1.60701846961946271 -3.8069686209931235
5.45937421099465059 1.29414310360633311 -0.650067213112127562
-0.10303965786439287 1.37336419979239177 -1.83959331435331208
1.11322536241810788 6.12715966591776784 -2.23926003993184874
-0.773909088588835337 13.6208070071444514 -3.5671899737876589
-0.656523722491859751 -6.3308772299401328 0.610685411567359338
1.83178678904904513 -6.16358324526436618 -3.82341825507615551
-1.98167259798005158 1.53334185170341719 -3.55878599241333893
-6.32409779796963178 -4.00458115742564047 6.20050757190850454
-7.70204060360369525 -3.3074891381140441 2.59564012254214926
-7.19974757310161806 0.967480492268652847 -2.10233840447272069
-3.94526591093135703 -5.69644241977950383 6.87645005932138886
-3.46213854745340965 -3.08095571786686007 0.178646898985737407
-6.27706924094319785 2.72271489273900613 1.46656144717847203
7.36037776637256425 -6.10221969271480447 -2.80222135213985801
3.832702624842383 6.12009604418088582 -4.08356607856988507
-4.15633198595423892 -2.07519168181103453 -3.53101446235064431
-2.6611826016055149 7.08004253169851872 -2.20439036445808512
3.14332814504952562 0.474857583413378692 -1.79408235096960533
-7.31859538850623448 1.09488268358510887 -1.6238696122780798
5.26440938579446094 -1.64445571634579313 -1.04567507113453528
1.01681142470395991 8.30439339786658337 -2.46588407420168299
7.31158429977880964 -0.380314291651281555 0.373156738248747066
7.41954269242055453 -1.79667559055796122 5.24986889909655208
4.48499836629479809 5.19387664910339364 -1.83283795942432293
-7.28062618187002109 1.49709837913264199 5.04625731015301771
4.23109044631468478 -3.08496749954558958 4.96759110230674406
0.786642204565094927 13.4011890604686794 -4.22290264597008935
5.15922164087033153 -2.34751602841380169 3.88550884174967504
6.51320964773775035 -0.13300012466002234 5.86196461941105795
1.47099342226678509 9.09735880333213842 -2.52235712748789487
7.51612829790434667 -2.64376974430057476 1.67748398451052583
1.82118060398801385 8.87058568063820374 -4.47960028947530109
-7.49701746705813132 -0.998028431913568825 4.57831640876218948
2.46009708806939864 12.9025919318051923 -3.16759164880303912
-6.61992270004055339 -5.84326440332796881 -3.54601516892417035
-5.5323489342435801 -1.73804209881260308 2.89338818660153896
4.71904662215270321 -0.107030021677789217 -3.35627307426647103
-4.96261163005098371 10.2985565647377317 -2.47109437287939171
3.743664645301926 -6.30180585589466347 0.232898280487336601
4.57708572249718859 -3.95269676790658187 -3.51545283074361503
-1.36203585937872163 7.50493675370579361 -4.28991458381156399
0.356857988411739158 4.64827924554790339 -2.10288092411691085
-0.18320464872597958 5.25210026505574223 -4.03658829680757503
2.83072835917985355 6.88737828328250234 -2.24042000780522033
4.15272061130566961 -3.05579247243754226 0.812058981743476238
-8.28160537534171581 -5.04461306793223319 3.99428062033069864
-4.43313177895535127 -6.30391603335130757 4.40215789941802349
-3.773590899210991 -4.7349511423203694 -3.8511248542442531
0.240783156120324415 -3.02695192728630369 1.09592398603065089
-3.38709428767016441 -6.30344825624021432 0.0225269906212188613
7.02388164157364159 2.35518973915531671 -0.729129807644911199
7.14925810891585556 -0.962148950474667974 -2.44390019137966341
4.10600862320492421 -6.32804198542804919 4.23419785042566588
4.21389509553888875 6.91292389331309387 -4.18080694844604395
1.04009075916778793 11.6729426508075278 -4.85018927146779699
3.84158028575666943 7.78424822960329443 -2.23092631396961583
-0.756776240828781699 10.2720767905534771 -2.6394879444293653
-2.94356021428424564 -3.15550334655984477 4.21964053040675946
4.71489386475221028 -1.45061471878310155 -1.59412520364570032
-2.44470886426779055 13.1065573557295458 -4.36521084240224955
-5.54452241122554312 0.00508267342415489806 -0.989706048743485445
5.48760250987072862 -0.549718158344051022 4.50303044599647784
-6.88771183925798169 -0.426173335922580832 5.8620622691574118
-5.0770554937479897 -6.31318456661970817 3.63250554293388106
-2.58502328497910261 -3.13289143534623182 3.36858623601331253
-5.03917940347794957 4.847365374633684 -3.66329869431335453
6.8672708091204484 -6.24954620802427563 2.8344951566270149
5.30070579548817467 -4.68179715891757642 -3.46415014350759431
1.91474492236853555 3.01265930161976581 -1.9010054241572254
4.21399081481572946 -0.435471559531839414 -3.45129783720732508
5.57359517550457628 -6.28435652242476017 4.83423379601699654
-5.59457314297799613 1.86961897367253815 2.74608794829152325
-4.12801521148097184 -5.7976075151072477 -3.92763507940058298
-5.31172061128546336 -0.302752889066666364 -3.25783366734157154
-2.70891368184106041 10.0171419248689482 -4.55494250243369869
-6.15365038280085308 2.71277866914920951 3.75210836045107676
8.00991918665786251 -4.70344759639020094 -2.34859428284056104
7.53182176236164391 -2.73804438577624776 4.22464441071706798
-7.22047319608932092 1.95836021426680351 2.10014700733121629
2.49985557922545087 9.51018201319234358 -2.50928766984492402
-2.34132064160311471 -3.18687432857740793 5.00976566782381383
-0.921864968604612756 -3.12548482146109752 2.61129597299268212
7.62100733943701059 -4.72692958962799459 5.97909176346590776
7.14249702912834827 0.339115401388435433 -2.15795831999647358
2.36354945052417742 -4.11072298596184194 6.739491557535783
1.44989970853730221 0.849834503277461906 -1.80264800594715835
-0.629252789622650299 7.74905590003501743 -2.42076628673651051
4.43312233648245257 8.63198173081607045 -2.1753905853261033
1.48517486359137818 -3.0245987401433494 0.893931022736426217
-3.29842454692887355 -3.11315860798517763 -0.573425777832290096
-3.98822894032657338 2.47208077056455799 -1.64969031428496038
1.19576450773154552 5.65294992914995653 -4.07742472228772712
-0.34969287246912556 -3.12652985694198682 2.68209048021580365
7.28111327915514028 -6.18157063979626376 -1.50750026945027216
-7.68924736865843528 -3.06135925308405588 -1.58155802358772712
0.455871143858713579 -5.11574556327547647 7.09436466317461267
1.93157697645344828 2.27033692929563591 -1.83069414829844512
-7.63823145357698774 -5.64065794693346501 6.17949120441715749
3.34338251276390475 -4.65513262644118875 6.61541375333335591
-7.13847879698463039 2.3012178977953841 4.9274036187061343
-8.3207977883046027 -5.93844946282623365 -1.62414103684515632
1.35259436044716574 0.350021532435785876 -2.03728986187596606
0.298002749518294696 -5.85527274703985245 -4.17234139417358385
0.897114730789203008 9.12667482747740344 -2.54614270288134126
-7.13705555476565312 1.81757727642361377 -1.95686450072439677
-4.11052861227253885 9.91744737793717057 -4.47313679320928603
-7.79979853489424357 -4.1197511906856894 1.98159698577827781
-5.53616256300192511 -6.2060063226914739 -2.92818166344171438
-1.82751013957218289 6.84406779015074029 -2.25620040932621313
3.5162436525497367 -3.07673516716755824 1.8027342312046597
-0.717734992816195794 -6.32758067332922458 0.351317710115047921
4.34981492165718642 -3.05542464951677184 -0.0600724131952204768
-0.727379310168521642 -6.34914799348503589 3.45369318385646551
2.62238415382715173 11.9957340481020012 -2.7146173395991986
-2.35855622142286769 4.92915790875893656 -2.01719116576144142
1.17636281457821457 -6.32120068228832466 4.62919685416506788
-8.33152379428810796 -5.5565532584581252 2.65946306089447937
-0.570073666914172716 8.93560701245489675 -2.53558440997523915
-1.90265644689310021 -6.34558376490710607 2.92325653981207401
-1.62065236491012588 -3.17283836360350646 -0.751583343409733873
0.83676618914346601 5.69265879270100239 -2.20333015390222009
4.95542283784155746 -6.14998370665704375 -3.47571071115078745
-2.35835004055743402 -1.89734576909494335 -2.00988621917443178
4.46741776738301066 -3.30513311995518499 6.45506538711188593
-1.02124903529300926 -5.83954471603524627 7.09051636725525558
5.57692794117301727 0.42974801593835793 5.51714965510837718
3.39442473764980157 -1.32319550171014289 -3.59770223709811088
0.132331074934369686 -3.52078441166624234 -3.87620574278573349
-3.96561085463610352 11.7262554940569164 -2.51633269282574146
-1.30883964791749929 -6.08944136783495793 -4.05987759594566811
-0.684068660353469582 -6.322516517958233 -0.542651123694411486
3.001251282333111 -1.10733652464871768 -3.63650767194418689
7.94361116573333259 -6.10136101972423806 2.09839180236114053
0.578027713408550081 -3.1201231196857182 2.56715412775727359
5.22052258889782994 -2.10311251114760456 -0.732641934888829782
7.42433953099096389 -1.75897338991867591 -1.96556183003194018
-0.778343611234473043 1.48434832882109413 -3.61710516822339789
7.64435236919114391 -3.69260234396656406 0.209827345714435204
-7.59846187669186257 -3.73643442277070337 -2.43520698205515762
-0.83324788063293509 -3.05853482762585527 0.280539873288392305
-0.745860643092083997 2.82657693037110169 -3.66009005032342616
2.00832981473417371 -3.15972445269477653 4.74401819430116412
-2.36669616176791031 10.9976832879378854 -4.69347227702650827
-5.12281643635631934 4.522728179553682 -2.18142426255350408
2.42216252454392045 3.25444076132166682 -3.68426583860967494
4.9843199644585674 -5.47085805393929636 6.68683718515694103
-1.50866055963238699 -6.10325231100046306 -4.01439791362590981
-7.2707918506303999 1.71741016604223184 4.33964310509913709
-0.817970618365271074 10.6513767608676702 -2.66742812829166587
3.42639009954875995 -6.30600690921110996 0.790437686695048103
-7.55155610227980922 -2.01569311030410647 0.45650580724841755
1.41805787673728245 -2.24782882285972407 5.2694412348118842
7.79359800125889457 -5.36860846249090429 5.97936044315236792
0.625136030444705337 7.36782879676171731 -4.30168991337045625
-1.06971735164017878 13.1749256538305595 -4.94346491386401166
3.55056661629722781 9.76579678425769693 -4.55688056946396092
-4.13308414574825811 11.8987194762692887 -4.28556233898062455
-0.766057196063753443 -2.11825487638990451 -3.82115529563359591
5.11511056204859749 -0.307012591950659552 -1.46273332760904751
-2.70968012213010612 -2.04119111469662284 -1.92027230031781238
-1.44770138794926151 -4.08450997450992936 -3.85253607298113776
-4.53383172059915118 -6.29209528926940642 -1.31763632139220843
0.807739560388418321 12.7958177106950011 -4.97981300678258698
4.02808426650756157 5.10301222792666653 -3.90705929195999602
0.190666738617622428 3.31267761291878671 -1.96433063685790521
-1.43555092938777129 -3.17222545830182989 -1.01260116201291095
0.330989477318629988 10.8543213162380177 -4.74193144466433658
7.29583584201686364 -1.12992185466077921 5.4867567346894166
3.26524022234999611 -0.482090732933940336 -3.58521086890419394
-4.62764494523442949 -1.50123459802705539 -3.43323961260527444
-6.9732218028391717 2.54214935119261165 -0.849075661531482062
1.34082397474414194 -1.15303481189843104 -3.77774429558033509
-1.61271663573749735 -6.34973150324191771 2.6123759772481927
-6.11428987973354054 -6.2912622793259283 2.34681280955927907
-1.11050327276582417 -6.1846602632741261 -3.69095034939645572
-2.56553384618628977 -5.56149244508473561 7.00725842001309207
7.28318667451029889 -0.0193642986910519017 3.88876090635411531
-5.70431791264845955 1.74855697093047135 5.54533232187348268
-2.08379566491926171 -3.03243833038084531 1.25712338949318436
0.247940520230427508 -1.73208653951812774 6.72623111897855619
8.22730286054201088 -5.6309448436623013 -1.76829404319422956
-6.04183047772547432 -6.2890307967835728 1.50274740202994184
7.65206008132841031 -3.70292286839078644 3.95415838145066223
0.666747470769338713 -2.70644185278499316 6.81575662595319542
5.40662402767352823 -2.57952022095146738 6.20286003775580319
4.11999125275563216 8.31215972088861044 -2.22692457953200451
1.40675988001078212 -3.07512114630210753 2.04045290972219773
0.940655243285457354 12.0973674749837894 -4.90010018230123379
1.08196755359061414 6.26120518308361618 -4.15610626342306677
-1.7216539012556269 -3.32526495177339498 6.77468206863422928
7.35600587970854125 -1.12052613854183147 2.95749339667762623
-4.49544025372584777 6.9784189019891576 -1.9506849473285468
-5.60255378879061361 -0.757501614903539511 0.651967598676665872
-4.28375555201504365 11.9222503333008838 -3.57244876774481934
-5.58946631399220717 1.32025473602374332 2.53529182060451408
7.04635945560160248 2.23530349938318595 4.69845963045092141
-3.59630972374420521 12.2410598832449153 -4.57878098223569285
-7.14283293832756527 -5.44592756971140002 -3.3678830227030665
-0.776100542824312845 -1.27009433562456486 -3.79536713496400013
-3.5200333348521724 8.8964120867325196 -4.38297881838256043
4.70330033002790593 -4.09956985265159712 -3.5004639235119468
1.42481126691733784 -6.30962568919337574 4.9938203818321929
2.6753349396589039 9.17003021373807137 -2.46710774929143239
-4.46979543321939765 0.602306251917356983 -1.53997656238343228
5.63633261213892123 2.4389252894275244 -0.981067980798442929
-7.61213366236779798 -2.29340385698714044 4.56245833006566404
-2.58674766646646459 -1.92856660371343969 -3.7118568895630033
6.96486184334390135 -1.61656280092198679 -2.74818470634190959
5.82737434850114688 -2.54797805876577987 6.18903047486707525
5.04301233362083146 -2.06962603422562674 -3.36520058665518285
-7.32425741923368889 1.17009703841207213 3.77458739985726988
6.2930076784363429 2.76050794542192479 2.86698086198857816
1.19194994872100901 -6.23468231062007128 -3.02001065397563684
7.35883618782449389 -1.06392340686635745 1.08793856416454049
5.56860095962624513 2.28218178450668541 0.993396357579385048
-5.26125367897003926 0.386567943287952853 -3.23580945256626418
7.66525335931025165 -3.85700391850305202 -0.0012182263507009251
-7.56571415783027046 -2.18504503293877939 1.73003450492898669
3.56524159843636745 -3.12585169398024432 3.87843589657472743
-5.23180000845320681 5.84689663799339066 -3.29603699387712679
-1.02172413731894296 10.4025344225498184 -2.63637981306509772
-0.994433725118077816 4.46167692531804683 -2.06541995071236828
7.24365469869111589 -4.15338808156976924 5.91369015839010359
3.4163604400760299 -2.70367039211181126 -3.63758480556636909
-7.79053345490706839 -4.46483656179477695 -2.09022431307304313
1.32342049904182502 -6.28782314143734222 5.81324705770359085
-1.3602552030545656 -2.34753114254598438 -1.95826284009022644
4.69903659484065006 -2.86594418797439099 5.30041341820551004
-7.07264621243802605 -6.21900598758570222 0.165843432609644376
2.55104260778071579 10.4634164563188214 -2.58738571271077422
-4.9565711640001755 -6.32199281569984706 2.36538195315807531
-3.59811002758497755 2.59584901475442997 -1.70160664441158849
4.26530677048793105 -0.296405817485271783 -3.4376813623309066
8.0758570205776401 -4.68126851366837204 -0.888602052809415399
1.61685264127451589 11.1786978025904631 -2.71137968646019933
-6.25360646859517022 -5.61398878776154042 -3.59274345174875975
2.03425542311011087 -6.30856474547152324 0.463300990710893701
-0.788671684513262528 -6.32323048434971113 -0.388041446055542416
-1.60921102524411674 12.5653208015971263 -4.92647438339122079
-3.89310191681922069 -0.43014572551813518 -3.51130784056949219
-0.950882416932009922 10.2111502971395645 -2.62499807291729459
1.39567560771475008 9.00308682662203452 -2.51658539374184809
-1.300934184447883 11.5316594252734319 -2.71613658465839425
2.04099943330673206 -5.06847593072445601 -4.06336784578006949
-3.14309148354967238 -6.30260922265793777 4.46421763691226925
2.34780770212930134 -6.30912451662391671 0.632684603457703276
5.49773640670511554 1.94828425075122946 2.01405962040182729
4.02314929727827675 -3.09721788810345533 3.77988414003030648
-7.62328206079421733 -3.77348102431118981 -2.39001656712822497
-1.27219674886221168 -6.33808510695626026 1.84632441031973182
-6.9178426778208868 2.59716971321486456 0.0426524000768349898
0.28377687749679853 -6.13053080568050568 -3.98658087176581111
5.49196662201765573 0.798015612028515675 4.36852877047459298
5.98276514246223012 2.67055909362248034 0.783794200729058921
8.23345617009520758 -5.21202099642305061 3.78258506219234425
5.48053998581295421 -0.297601282556012536 1.00615678218592941
-4.61178791529546217 0.713441523218332208 -1.48323743041971134
-4.21165630507175592 9.13347592454570467 -2.19047964548360596
6.52612948660277059 -1.04157395211866799 5.93849085054184567
7.36831092967399304 -1.0552661692493579 0.000498644081700608103
-6.96386740736488896 2.29061598263872623 -1.95316008856765055
6.87535511913848829 -6.20226997873574781 -1.73993958088119594
-7.44748297964000994 -0.933835534098646836 -1.89854451570135896
5.49115829036586778 0.00613769750987081843 4.5268428504867293
2.08685638205480561 -1.97624354408372382 -2.01183471278692805
3.77924554577719496 -3.15198824771351749 5.60816127602754477
-3.53306614286560272 11.3426529783512322 -4.66606748962586515
0.329885084317870725 0.424950974451738461 -3.73645821790709576
3.2850254966295922 -0.0458603717129784094 -3.56673239404742537
-6.89722686874001933 2.60877653065650383 0.282880572925598206
-2.86333332393164408 -6.19671086642469771 6.58141260841628828
-7.06156406448050156 -5.8503166464991212 -3.43319807298236501
1.89288639872722397 5.05700866976252073 -2.10159055463048094
-8.35038408979521485 -5.84581480378082841 2.55516723054041117
5.28378302016789636 2.00497480497896996 -2.98206559076461764
5.39166604153733875 -6.28086141787592389 -0.408712531046342309
-1.87422759667438066 -0.837857822024557941 -3.74017433725243453
7.23745197235673832 0.73227907025920469 4.28728011920435925
2.04133473682377664 -3.11382149745333914 2.84270410079595237
-5.00144352638587719 -3.89331214764168543 6.39289237581925818
4.74840130811120265 5.77482762263367544 -3.97258161682908417
0.954946391442509701 6.48423948182866727 -2.27897926294876152
-0.602319305255138437 12.5586243284102128 -2.8351550423009928
0.822466802230424898 7.05523869891797162 -2.34123397861056004
-7.11741213765587855 2.34886531200635185 1.91955641478818384
7.59505017593663556 -3.28439542571918608 1.59507472870837774
7.28661926243339941 -0.338890897104165367 2.72465685285001058
7.52464684188325172 -6.14098471409052138 -2.0952530849434905
-7.82120546647566162 -4.32101385478512068 4.28958832594434103
-7.52130650502290976 -1.67586984601337341 2.66352020082051544
1.86028473384149096 13.1709437006884649 -3.46763318044892133
3.5677993352582158 9.22059781498431086 -4.49451409453044981
-0.923358049997753616 -6.36009813033227012 2.91704328348257391
-3.01026120904476224 -3.12618003247276244 -0.812154549918297719
-4.67491476110250836 6.87928151638064378 -4.09163563456125168
-7.05625694087656452 -6.22335147252761978 1.15337895440016247
1.96980786325205526 -3.09147085080982187 2.35128283393619064
2.01917328576332178 -6.26907809802763794 6.23852078640561736
7.43564819315126435 -1.85577173018204267 0.00780065133711373062
-0.961778254414915601 -3.2106014347013061 -0.799745549708350101
4.36405108656632912 -3.07084024170351189 6.06494361767073542
5.45859101332448127 0.626784087982768856 -3.16765389472436265
-2.77613515266903876 -6.30349131241369509 -0.688976343467877728
-8.26696999947716726 -4.90730059061645996 3.03241542361957572
7.44688674965964648 -1.96598222688040924 0.293277958645729087
5.01151282190788994 2.65339321461963573 -2.61434510592800784
2.16537504353897203 -2.65693928394477119 -3.77063289746190256
-2.86069443050506456 -6.30360288657926748 -0.167452732384067993
-0.420041477896104853 8.104576205201937 -2.46079850263888522
1.60204713230759355 -6.3378496148401009 2.01897674736442401
4.84117395803166861 1.9060002576097641 -1.44923391467764762
-5.6462844342439853 1.11262332370421757 -3.08935763095058347
0.146609264812148282 11.1267093018822472 -4.77595203226524045
-3.57207740271372387 12.6002280190874227 -3.06356989799298685
0.830305390373022756 11.2405350039190708 -4.79231181554643637
2.11014966194478282 -3.09347149060232951 2.40235212641136853
-4.4782310948069739 9.79184422293368506 -4.43186602891270809
-3.93251809392640883 -6.30877133220461772 4.31603563064507689
4.03791167302631759 6.14975174737362007 -2.02687552400614424
-1.59225981369349423 13.1925438540659599 -4.77691298520152507
-5.59268880315168637 0.000556311572831649499 0.530685296539675666
6.46842466345032197 -4.8781708867740603 6.3588852181583686
-7.69812240019124516 -6.11507192034125602 -2.33637091665881247
-0.206947162692616565 -6.2834929010645304 5.88408287348083014
6.81568586888228101 -4.18414015490770197 6.04953705218422222
-0.997990908071712646 1.14313307611527759 -3.67057435677873301
-5.59661123221367696 1.61562633313641624 4.98101199716400345
3.34229842721521697 -5.8481170922994572 -4.01182566526964379
3.67065275982214256 -4.75488042557309409 -3.88773219187559604
1.88761629383668694 11.3204256289832621 -2.70917815908782744
-2.05406089053451302 -1.0851596198530451 -3.73518813652825221
-5.59391873806283613 -0.528837236535347421 3.91073468841621041
-5.58806704322829173 -1.12742218748564582 2.56352135837384898
8.14839503174907342 -4.73562116119250742 1.59893718399799645
3.02494955077260652 -1.98212045584089513 -3.66300527198945192
4.37762143681083238 10.650311943099231 -4.26158494083781303
-5.56998782903252732 -1.38774439769714708 3.33798925947035974
-2.47675253544840368 3.52396633701235995 -1.88879465705185434
5.91761557686617579 -4.38045819954839022 -3.30769924734732124
1.11637642041661111 -6.36124152356628425 2.86797426548099388
-0.602609222440374737 0.940701564133052393 -1.83170482045629823
-7.53303214045227421 -1.7862026591629987 2.82135343410605532
7.64534685868591879 -3.64056872294301481 -0.970176324412834079
4.79151058757786963 -0.304342670999582232 -1.66142875626768616
5.42434292384280337 -1.41605658892515085 -0.2925953126706618
4.90024935897516389 -6.16475548760849978 -3.41858992233558201
-3.27468341965099219 12.7527344025881977 -3.89058002322905905
1.99747576855242848 -3.20425722403640112 -0.673652347298419496
-4.8976638470881344 -4.7301706706014901 6.63896861105012626
-3.53010572924267185 12.5498840639268536 -2.8862903020203623
5.88113949837177508 2.65847362115970265 3.26422397572531287
2.55077788346848244 9.90295313779874853 -2.53957403083634725
-4.65920439396811137 8.94088946818818187 -2.12099453612159561
7.43093696872253329 -1.843724336609599 1.4724206416303991
-1.28812139606003973 12.2667416486574758 -2.78367451956506873
4.2114603962066619 -3.93581335349546091 6.49629883521905604
-2.58729814963334448 -3.10364671566040062 2.53725807606838538
4.35398097571109766 -6.20008578055470227 -3.20931374184577756
1.50276430034147279 1.93958668964937786 -3.47034422886813143
3.78451288185618395 1.77812009036335583 -3.2784454075223004
-6.77925778541634028 0.883167596247612763 -2.65756556979080383
8.17664735008882815 -4.83185601288314714 -0.394100255893696516
-5.41074400720706805 -4.84340343356474179 -3.67822565534698454
4.47928834764369821 9.00911455286364315 -2.20607058333143913
5.51786746136133921 -2.95568206340339268 6.28238111106155106
-1.24691890002057759 13.5528557262307494 -3.69836187821967277
-2.42090548719285303 -5.86071831846880897 -4.10272743171957543
8.11009918631285842 -5.77216629280486959 -2.47167978604831529
5.96005956447018903 -1.33609514730543677 5.98754338221099669
4.73364918635330056 6.22824990605265238 -4.04294746734209731
-4.82785422880625337 5.57682020839538861 -1.86656873408469948
7.31428864014137492 -0.576585867550726161 3.43766985503633737
3.63159980921901449 9.68551680756828581 -2.42608285255899414
-0.94296726565893807 -6.3164333168994018 -0.917958104833654476
-4.24830518066040241 10.2632366035917997 -4.49482974922532108
5.61184423160650336 2.38996768922675873 -0.326089641276740561
4.75123939421262786 -6.32607443011802584 1.99219147912526529
-4.8313874391302436 -1.50764747655419695 -1.56911687692763824
0.8937183035809948 11.9346284072596323 -4.88118301733374871
-3.95864918328699034 -3.03027092501466111 -0.868083690457174928
7.42854807103063397 -1.8676556934220192 3.05573165998494645
-5.21017407779090469 5.11687852752846517 -3.06593721967324528
1.61221069858075472 3.1776920818846115 -1.92653038615093197
-5.2429010797339819 5.90711523470410693 -2.83994966340666677
-5.06740512451050495 -6.28876318249299704 -0.972922060583797488
-4.98723160021661993 1.50111864094255232 -1.35786312368789508
-7.56165919778963147 -2.07393336375630843 2.93193415238815724
-6.72017028788434434 0.254884833454368909 5.86347237972132529
-4.83570908324081472 -2.64390019743755955 -0.903622827289434993
-1.79140788880858071 -6.22885418514228739 -3.15800122807232064
-0.0151192110258900961 1.2404096605617998 -3.66751987513008881
-7.87433146622718549 -4.64358654065839005 3.56447571753798709
7.68126341879617502 -6.09036436186347618 -2.45162652784121127
-6.15179952796146789 -4.24705549161967966 6.22057629607209606
1.14283876542745544 1.27936783821153921 -3.64535462347266259
-7.43536463982683316 -0.471150216202418093 0.262966802811057276
-2.95731454381674386 -6.19558538598990083 -3.52037765571911843
-5.65100322659343135 2.30504765087259322 1.56862475431191561
-2.36515306073648413 -1.75578143128850073 -2.04183382692121418
3.14563098947587783 8.14292359683446954 -4.36756344887406733
3.82868350401906676 1.19521345049152083 -3.40163674166566654
3.03085038158079989 -1.68904661870239092 -1.96253635219207467
7.16007333931448997 0.291010030311082468 5.48413439308895079
-5.59725540989558024 -1.2065775612838685 1.29888615897386961
-7.35597484912302058 0.695141180595939878 0.564574779310359931
8.16365736753382976 -6.05243564864981476 1.8715520990394594
5.49110167806668947 1.43352756734740283 2.63685614908355426
-1.54286582341640188 10.6090629305732236 -2.61905414624366051
4.28523678902846061 2.47637488955788809 -3.40504557646377037
-3.56061334784743266 -3.09104647767520602 -0.771738033933362377
5.22457675241477304 -2.18544751311873764 3.75457919252261885
-8.28154164117463587 -5.03782620167835393 3.57986422776484803
-7.33003367264285544 1.16019857569513429 4.56976697018826705
0.851745938905545619 1.46412509123158907 -1.84316084789489842
8.16458724714397555 -4.78995502725090105 -1.09754842180103296
2.21661829278766742 -5.22845628805925777 7.01808555132957679
6.11170615155841013 2.7066205095494249 -0.00366210387599649441
-0.836851729745972661 -4.67571145282979828 6.82835013977991956
-3.72332152303173558 3.60286301669405917 -1.76632762434026258
-7.61417185415959619 -2.39675585749161835 -0.837155783497096295
4.41972689519724682 9.5587446601309729 -4.46237104256066797
-1.16250035265569829 -2.220995102539709 -2.011160813353015
-1.88088164865490293 3.68081209900729212 -1.94976671918507294
-2.37697958399664122 -6.30640661510714384 -0.663481054888703903
-3.23276474381585244 11.9273644993467745 -2.57075339872863751
4.27305935153429672 -6.18923302510559203 -3.39908552232491967
7.42150492906008541 -1.79804236458159949 2.06675924161918001
-7.33508906081063738 0.930966579842041564 3.18624489484422657
-3.27235143069399959 -6.29435917254307409 4.69376297866635639
-3.35612439415026653 -5.71141715183629906 -4.00419493139327987
-7.58050139016268876 -2.32546952448538624 1.95262138330403956
-1.77416921580541076 -3.14468913950544193 -0.384890177379979992
7.44340179445106198 -2.00604237227933302 1.94245733217787953
2.36703609647726232 3.30121061234831004 -3.69459075354802602
-5.2267176015895398 -2.37768033847106031 1.37416329240380497
-5.57028813364135011 -1.01812806641499387 -0.697089278211968977
4.23598670838046942 -3.0846913419801707 5.43363786631599321
6.96201913030037112 -6.18437315804176801 -2.1778092386834933
4.36946813677246659 -1.50770131180712785 -3.4643635718715573
-7.71514494029872377 -3.4194967675842407 2.58247136012588507
3.8057762835184441 9.62898736221724327 -4.53142644297394792
7.24686086879402502 0.196822559179628293 1.68075120068143713
0.200005257154466431 -3.04908028374139484 6.8162159094888457
-5.5947454058825814 -0.328664512931062136 4.77723592809693098
1.4738266095161201 9.10972901287910375 -2.52348687514978787
2.16400985848064575 1.84986450544281422 -3.41396806921988594
4.00169147643147749 -3.07620986566424737 1.63443835026674877
6.92461314422671137 -3.71279882486742219 6.01010416893067756
-1.54446599157485553 -2.72054907900880494 -1.71926420349906195
-2.07957221671421078 -3.73984957083159753 6.78405180696542054
-1.49011875006149941 5.62734170586293736 -2.15222202908997851
6.2253470463503513 -6.26403030616453727 4.7478924694532525
-3.43587387479777018 6.01499164999616998 -2.00168664135897512
-5.56821368173897824 -1.6471374625050792 0.6439461896039268
7.24019504814735892 0.80891387119340874 -0.290445875978646684
1.91793291984787495 0.20035310912567908 -2.09658932843112389
6.28408789624027531 -6.26915492390627005 0.567688969828555212
-0.866559318075484919 10.4860987548845639 -2.65112741767903248
-5.66887407840438584 -0.641336855623579893 5.69583169436539638
1.15268877523684221 8.31794447430781325 -4.41676338347940511
-3.80336012933488599 -6.33526869591077979 2.74757201417962538
7.65662956145175055 -3.73945510176328355 3.93159602574734635
1.58754475552742935 -6.33107484843166812 4.15279128612552384
-0.317316669203703439 11.8217828000012872 -2.79005626161217002
-3.03878055345591092 2.00445167777145938 -1.72451448621906889
8.16789341277354985 -4.76349290628728639 4.16803090191829284
1.20054946800046691 -3.49644414396088354 6.81027312356868375
-1.15505258236703634 7.74668304081677306 -4.32848219635197395
-3.56059180777052475 9.61137990466973591 -2.32684414465764444
-3.5186857832908105 -2.97200534239035719 -1.12076557809865895
2.76754973093034184 0.771823183707591953 -1.71918847886562109
-2.18419623554226972 10.3438742774123753 -4.6106680579017798
-8.3210601140617193 -5.51698287603943083 0.145877821151520398
7.03331033798486427 -2.14570374850287449 5.86253384797954347
5.44139978388497791 1.8984550971624754 -1.06951192824074059
7.14503001206425026 -1.24283867674929982 -2.5017488827771297
-2.65535630651478494 9.00622282188056289 -4.4333277537148863
-6.61210035350866665 2.68687786306730825 -1.49449518077974242
-6.24416844610113753 -6.26207057026543801 -1.06636701995934624
2.62580075933482515 -2.23312953290417049 -1.85065563191585536
0.300638710603049475 -3.09100966637918129 2.16298718537714674
6.90224027961659026 -4.6413175416975907 6.04295660867741535
6.46921833748119379 -6.23740720161473572 -0.941593212332899832
-5.62670404967455617 0.0934010417891203704 5.44790877555967867
5.43066063908558228 -1.39475872194070449 1.02759537510586907
-0.273614107846542887 -3.11225753816993045 2.86559435629649162
1.75577369369178338 -2.70588093989890366 -1.71122451718285506
-1.88922366660207319 -3.14437405451043928 3.33529845383272372
0.518584230683349467 -6.32087348906148616 -0.0690922516314296103
5.26688987432142586 -0.33334980475328857 -3.26166721201289844
1.50554728821460659 -5.37805155998054207 7.0672554340787892
2.75311726329645357 -1.65713510014654064 -2.00644356237469967
