ply
format ascii 1.0
element vertex 773
property double x
property double y
property double z
end_header
2.98113030175676741 -0.527811889715241178 0.0752591742862467328
-9.90214644493494411 0.712598400316530878 2.76134791531298518
9.07914848431511956 -0.545614064099541496 -3.68680753416149454
2.14487225403265658 -0.268126749421177146 4.92759380627596855
2.4357469418992137 -1.05863351489654178 4.49100003978131568
3.6515180009438688 -0.403928734641853582 4.92707766371180966
-5.36369963699038621 2.19368033409091368 3.06857529532082696
-6.08009130511280738 -0.568164654109547196 -0.914829000762398259
6.75762412583549033 2.19009664932522208 -3.93248253641177881
9.83827984451369453 0.831539407771436201 -4.71668931547436987
-8.68148337419795979 -0.580188729417428162 -3.82545601650816192
-9.38567081362986855 2.19699496602257671 3.32298333600632789
0.434218351177025619 -1.06703513745317635 -4.70665479368819373
-7.87753331141976787 -0.160960868594100942 4.70337234680728944
-5.02005972310530968 -0.557150156245411088 0.335428457932937352
8.67800459565973981 0.600403087469261743 -5.16116625998042977
-0.379844396666503215 -0.519816774756791444 2.25619609499162577
9.72203161128146043 -7.17353349272272389 4.86218597094604466
2.01940410923322711 2.17368860141847797 3.08750490866151317
-6.01734528660896473 2.19482861914205651 3.27469973240261591
0.589483257579605624 -0.533958445845219454 -1.45113797048215787
4.61283711032449428 2.18141062379722417 -0.424491818736253801
-9.56120029363953527 -0.984891913657306661 -1.48435853114200489
5.41854375433892077 -0.817956762690741024 -4.59442167596624085
7.85395532068373203 -0.625452797845977515 -4.58443227770590145
0.864596285141397192 2.17576637938093853 4.54884255477620769
-9.98164731466906474 -5.97185262760652424 -4.51238177812787367
-9.52657700290020415 1.7889098383698836 4.67748507814989978
-9.38340492317829877 -4.87235879687086104 2.1808389852937462
-4.98280436099623358 -0.530541916544816305 4.09498256691620277
-5.52077350182518067 2.19525950606689735 2.48698420053629921
-8.10483174600922851 -0.578362164298821257 -3.57608542209382829
7.88656351376110898 -0.537757325981417678 4.33857995158413967
-7.48070013998212069 2.16499758820767818 -5.05869896880192993
-9.88596987952828243 -1.08550956366938611 -1.50746947737006542
8.1504815598558995 1.17805214820767712 4.48065759354404047
3.7451759318539084 2.19128610229554166 -3.99355738892960721
4.79527359797591046 1.80962796314984886 4.73382038712492381
3.35164909684498769 -0.540615382623715668 -3.5899119552748977
-10.008322093500146 -0.95424835547030662 0.312972214615608479
-4.57412521324557009 2.19709848460751678 -2.50182075387006453
-2.92055912511447779 2.18975458459988515 1.54449745789316317
-1.06162640021530064 -0.521404838933037795 2.50452346249677582
-0.207281968547766482 -0.546654284801313284 -3.74286963686342711
0.926666221539319768 2.18179626061227383 0.508920956525784285
8.78321109593853144 2.17883121897168808 3.83029557962586242
9.28558293650885958 2.18277454726044695 0.79552881945114895
-10.0136308418169779 -0.877709141874449483 3.96580817978855649
-3.60060153196636268 -0.536644622916344405 2.19088408820792147
9.16404392451895333 -5.9126801533467459 -4.99694970480205125
-9.73419151894432844 -7.23223694596935385 -5.0367791963045665
4.03106033133447195 -0.541475761519895071 -2.74808912147043616
1.80631734557250834 0.988486448804442697 4.51668162521604266
9.82117381008186463 1.67187816965429348 1.39340696922576002
-9.89654167571378274 0.493183048264954127 3.94095494549785297
3.59589166306849117 -0.539839114831353162 -2.31082139836413081
5.77894886369969019 -0.529920611632702654 -0.267265253497629085
-10.0097331198778754 -0.916029606057724877 -1.53328382081299219
-8.52972040145712285 -0.575028940001205302 -1.6800436058241548
9.67885071606494485 -4.59355364091773843 2.24460439751235974
-10.0192883004968802 1.88085046646525478 -3.20789431423352855
3.23264952088559721 2.17601619653788925 1.58995413873650415
-4.05196627255086117 -0.742923349245546927 -4.54314162068893435
-8.11548090124166066 -0.579606641468551231 -3.97131283176767269
-9.55315374524142413 -0.786208456116055721 -1.81101602727008748
-2.6167043407409416 -1.0224225084987455 -4.55910211273736365
4.59394048721312664 2.17994488340257409 0.198543459243773507
6.02459796699929129 -0.36640862946420466 4.92660947327469945
-9.99048805950206109 -0.198089227481713731 -0.213428957865269553
-9.9331851689176105 0.302285923046349603 -4.18103204248199223
-7.62579602792325506 -0.581064772374485838 -4.37603034572086713
-3.37081705938002418 1.78929018814931418 -4.98854726299753803
4.96732012537870649 2.19081019089408136 -3.67695084063567279
9.88047993904713096 -0.167980869604448579 -2.65047271082115188
9.8425411963694085 0.346085502390874766 -4.47328825672293906
8.95311406167272494 0.682818323426057749 -4.87959028782133508
5.68619594085324209 0.0147098951185737278 4.48757910030727736
6.31018796660224268 2.17704215278393853 2.45503419490498498
2.87547068279734663 2.1819915006970021 -0.299345168907000525
-5.35693167072838516 -0.573997174806387567 -3.74577303648722104
-3.76017746515633 -0.619170683161489932 -4.54451741251306007
3.06425455942567426 1.8044533369187199 4.5966945976972946
-6.6835711939525666 2.19941463307427831 -0.577050916092791577
-4.83392245511521867 -0.241628814214108201 -5.00306178340829089
-4.24310970026081424 2.19642230148722106 -2.96009347111362953
-1.83150852014982335 0.330363035954456707 -4.98462691889776366
-9.7833550879876725 -1.08541706226327372 -2.11788099606325186
-3.56732390199491167 -0.570048235576140816 -2.66030952469722015
4.49781158293908856 -0.576852163178480093 -5.03053272606867807
-9.93187922021893854 1.04623066631769035 -2.06669311352662666
5.66177439111767544 -0.527879664233699808 0.540534976514422727
5.16499829356712326 -0.432110417595930385 -5.0355994305569256
0.89202692852212262 -0.543606071326862783 -4.31432539802580983
-1.56269336825262428 2.18375218175286001 3.44955983262263599
-4.1628097485753166 -0.570777771041534043 -2.02638965986627451
-9.26751297071571223 -5.78403556780304839 -4.75267246498539375
-0.209762145687514473 2.18920441903277041 -1.71778429921137565
9.83898951024454504 1.4915575585868599 -3.83069405746446678
2.07934482239101825 -0.540229329910291933 -4.23850299762496885
-5.05525402202144925 2.19810933247490636 -1.31017058412522358
-9.79930499268692046 -4.43077153831297199 0.855743439412929185
8.55185364915516466 -0.528256968347053268 -0.804432553391684513
-9.42269588221345877 -0.582507397424307904 -3.42841367106499684
6.63384420491087479 2.18692909460524554 -2.60120473462786039
-2.08576999314723777 2.18976871601238665 -2.49087444414615344
-10.0078202839511778 -3.01161707566060555 -4.32890570248088657
9.83652441125617294 1.49205791518837749 -3.10961712272137225
-8.09334279628456876 2.19729223126987083 3.3264823985375771
7.62564901575096776 -0.52364995825783367 1.55495654918170523
-4.90689201822851651 2.19681246271722852 0.718883841150254166
-6.78831390812814561 -0.556446075525066308 1.63204928985901043
6.32618204012012786 2.17660968935893839 4.62796022550944741
-1.86338425444644518 -0.538908265408692078 1.45396317662983732
-9.47643992806762903 -3.87384388728311402 -5.01307120019540076
-9.82837554729207952 -2.22717064583359159 -5.01341390950514754
3.10938059072743656 2.17415023224592696 2.65370198607231789
-0.369817598097129607 -0.744909343935167834 4.36168284105705162
-9.2734958797479603 -2.49380941683971624 -4.19708158709614398
0.340338099461708843 2.19093096859406788 -2.23771456551649361
-2.55785556891497645 2.18510648577386446 3.7110138796341654
4.68564742483481389 -0.143207060157388016 4.51088024558027278
7.56580350338839214 2.18849054538841781 -2.77592417969658278
-0.370643369880704676 0.349557608568564271 4.51260170907872116
7.51643252954969654 -0.548136719143438533 -3.91020018921837975
-3.58128418535102444 -0.555033421950939299 -0.120412848145000903
4.86036716881815245 -0.52280893044083443 4.21574653361979745
-9.46403514413909974 -3.35595214049256052 4.85583248726205952
-2.33647182905995621 2.18841804673153151 1.87751947881563019
4.30937564430421549 -0.534449652930791275 -0.982055436306300655
-3.9935725322902349 2.19386861061868865 -4.90665795713549269
4.90323095216288074 -0.542033274628787143 -3.23370422737575991
1.03236500689037269 -0.52076964224276423 0.619057108558169422
6.58065608561931281 -0.740095411613237775 -5.03101937291990353
-4.2569557692372193 0.408058657825541238 -4.98202022431075164
-6.45508192021341731 2.19618341651840243 3.23576157341023762
7.46315694380014794 -0.135398618272201232 4.53068956618319607
-6.73481272507778073 -0.385362035671678316 4.88441630490721401
3.03001926580698688 2.1793270741486821 0.500554971452791486
9.94642536989792347 2.04599545123583093 1.46854693238562262
-0.825187885024903478 -0.553384600917431912 -3.17335512858199564
-3.41155346523799929 2.10082847251721816 -5.05542471419430051
-9.19773101206027199 -1.33545723357059054 -4.30743337471723731
-9.73444621535353605 -3.57638920540156002 -4.19088024816994675
-1.4831334560176257 -0.5261008985407718 2.43081167431135858
5.08249135688906328 1.66665363579753389 4.49801596388726033
5.02935440420751512 1.86585879266955157 4.81819352542524726
-2.05185224291144097 -0.569956787021621336 -3.9927563038592182
-1.86694372703235079 2.18397603805678653 3.79986300135807253
-1.65974632832046454 2.18591867527748818 2.36041565676423959
-2.43572735089820602 -0.530148612549589116 2.60466563969983023
7.84946374053352081 2.18689861200892199 -1.83155718333135464
3.53765430767275069 2.17430376634381206 3.83123385820475892
-3.92426703808816546 2.18980776345038608 3.24991496581348382
-2.1283267249812674 -0.536248437530106647 1.88481997131918089
8.14125603390403896 1.83494946952682803 4.73720172800622574
-9.42388695997334835 0.499617708458167664 -4.97673484048888159
5.40251646069965119 0.288613275253936763 4.49107247384561692
8.50133331939576209 2.17915313025648594 2.88079850332857346
7.67821852577543762 2.18485426010255512 -0.8731599325321725
-7.20562321507461778 -0.576029570078835151 -2.87028832249277466
-9.73778490318547618 -7.22269376934065743 -5.03704065147049551
-4.94421329978233892 2.198088678619043 -0.815238501440369134
-10.0025396452701507 -5.8155406753252743 4.38382454727690085
-0.488712050345907922 -0.55011860396596246 -2.56876249344078955
-2.60652751014350059 -0.847487671285184763 4.36107524476542352
0.465729437772105792 2.18156106320268206 0.840214330810420074
0.710395322474408286 2.18780676111440497 -1.25708383878412278
-2.41110514072245863 -0.540994321313935767 1.39912941188221507
7.7759670369648024 1.04634328609378402 -5.15370575969022582
-9.79740559574746861 -4.64093027867927077 -3.3828409006937763
-8.4015586358988763 -0.555584207632146998 2.86603342324321853
9.26871451013091807 -4.57230574359209552 3.29025866963747271
3.26788781747453294 2.17406262947821149 4.06903377229274099
9.68256735262728974 -4.51825729613910809 0.841109059996538067
9.62200509860362807 2.18476504100637881 -0.308883826666130457
6.52745982333881436 2.1780114059130633 2.00753643142683069
3.49123384451734564 1.24104980595725167 -5.0577828092403454
-8.02762567977986485 0.51642016249854783 -4.97383556853243913
-6.90371412428275111 2.19918445569133869 -2.89540986335814443
-5.61677222370144591 2.19042170461070107 4.4283664741969746
-6.6071011513129152 -0.896736415145590104 -4.52215990495554809
-10.0117847296227183 -0.71923978098046748 2.63731220215235851
7.24106508996789966 -0.532272594350141848 -1.40482051365344462
2.81579514021529853 2.1910763623669629 -4.20681400849426712
4.33878602307362105 2.17679082695936721 1.67837465356074556
6.61764505203134057 -0.530005965609257501 -0.975958447701973597
-4.8282694987823298 -0.548573918364431368 1.69444823121829247
-0.0407994916450477585 -1.03176229993629009 -4.58211643526068535
4.5883052521859149 -0.511817845063387455 4.92357803928882198
-3.78164310446951957 -0.55245557338500173 0.367275371146048468
8.85943938327116953 -0.954884938670335859 4.91903453338135321
-5.26392568787938409 -0.552146729543052439 1.38584713743251009
5.48855106147504124 2.18908927308748424 -4.84973865373443758
-3.41134041525816079 -0.516053169864518546 4.28965030268207492
5.41463619767185556 2.17749529164541267 1.58366646689348767
-7.4924415834475715 -0.554202420328607781 2.4280477447233948
-8.44536404354619208 1.78267700532831852 4.67069624927764604
-9.92880745816421673 1.73777309754255471 4.15932327768011589
9.25299213352535865 -4.65958449725081181 -0.789558529539117426
-0.878371006312931968 -1.01418431909076556 -5.00142799058730336
3.73342614021206831 -0.520666538280420865 2.3887000456973273
3.70055726978204946 -0.147163861773782489 4.81685142369946817
3.16031036458217152 2.19138973614132393 -3.86019071265046332
-3.17147550271003764 -0.541099800495117522 1.45392706153194706
9.77193642276595398 1.07415439537335766 3.99789829640815952
-0.712374005199139848 -0.541562756899661712 -0.474923785169863277
9.85583573352341702 -0.173230386684707249 1.49617674978861426
3.4844872843427801 2.19125478514148542 -4.05562299458012099
-8.99004717724090163 1.78827425479646762 4.74190226208138998
1.16130352080971466 2.19158151998538964 -3.2557934285820278
9.58980905500794378 -1.06283635543554178 -0.191840463627071384
-1.23933303903656933 -0.514970167191830197 3.63899297501686814
-9.93280537454295498 0.464756429372684909 -3.7439034125683528
8.10183283740151339 2.17925787742252419 1.87986696860463631
-3.14625207396098849 -1.05641496120595146 -4.56921250470923734
8.45088433646828996 -0.538198485685465799 -2.61887236576474258
4.14308949002213911 2.17943881257441285 0.319200311675858606
-9.53747570635819564 2.19835487637623972 1.470011324829817
-6.64295321855105847 2.10983926482004058 4.83355267061169158
7.90866095174479788 -0.233912149132587482 4.92782232122214481
-2.58271454044908388 -0.518334591925356469 3.80751155310996969
-6.25128212403471828 2.19956637382845077 0.388099563323911045
1.2271466322872413 2.17481540123301542 4.12755589319352278
5.6522537431680151 -0.888085700219454433 4.92188775181891991
-5.88134918377865734 2.19931306520136927 -2.86934202200438726
1.26529943852354743 1.175129181841295 4.51531641597452627
-9.22907208801096068 2.19683273059034878 -2.83545350634698545
-7.70024759618539445 0.203145516433709178 4.48342011482956782
-3.93991979241741053 0.381202783223148212 -4.98299318539869951
-6.87577620834577807 2.1940926329064907 4.21257648795761952
4.84748797060585002 -0.539566288727558407 -2.00187817773926957
-2.34885983065740911 -0.545597631023820084 0.741904256381080596
-9.91162852070504741 1.30054968652226499 0.0747095280480003648
-9.02777677127317979 -1.10681819757855493 -4.95001228266320048
2.82826117033153501 -0.527638066882056167 0.0293590274470864679
8.74244813147181254 -0.464537694686890712 4.92520347808585601
6.88301950512266281 -0.539670190530618155 -3.0087489461611816
9.67062577212064234 -4.27898903399718478 -2.21176441545276559
-5.94893361674048915 2.19872902850737173 -4.64637643014862523
-1.56097263490296978 -0.46126251098381843 -5.0054980127726072
9.86863163227884144 -0.177570223367122887 3.9440780955781447
9.39541119039934181 2.18031612630151761 1.73626843913652218
-9.0946683360712246 -0.962242982365556054 -4.48172150330703811
-10.0088942283737037 -2.58264531342695225 4.64044989336180613
9.7872137026987982 0.842970831507926399 3.40384399663378012
-2.05309009716799862 1.17722702863242534 4.51674411255193142
1.49778119129412723 -0.150872928504096143 4.69116620113181693
9.68157114746485981 -4.390493617970467 1.47996150870755949
-0.00931456524830043091 -0.51349052745471313 3.2355945169278657
5.07185986487942309 2.18054226470594426 0.180179475246620341
9.7795821582739979 0.857011794425408868 3.69981322588851924
-3.33750640133550958 1.719646566586986 -4.98603511165509339
-9.2441515721213694 -3.15827845268745833 -4.24900929712236497
6.71259844740389955 1.37453910710828753 -5.11924373995418236
8.85256248839035642 2.18209955607296857 1.06095797110060852
-3.74858619990130926 0.0893217898204857752 4.50483078581402729
0.436033067554313536 -0.564006371465308964 -4.52983949954160359
-0.579744433497292322 2.19261669840173123 -3.31609190920867736
-6.48553127349520064 2.19955789475328034 -2.69560826185462732
4.97955351576236716 2.17529821505071697 2.7509549223511196
7.87492307059061769 2.18698287474804642 -1.84574448995370433
-4.06375380352422511 -1.05505503856880822 4.47235295296837521
9.68040684501266924 -4.69644196668729563 3.71857463168461955
9.33623862411951677 -4.27576075175974513 1.37887716044217545
-7.50922857614761874 2.19915582588411507 -3.74567210532600425
-10.0094141808547814 -0.264871786971907885 2.56272757423668107
9.32757243551403015 -0.5525238072129528 -3.98989057232203992
2.02149857870134042 1.69709314610846107 -5.02367754130680932
-6.59045672464188659 0.843054687486397558 4.48183869229989895
-4.86349402591810431 1.61364408302603146 4.4963822907726918
-6.30341123469215336 2.19659039109903009 2.50725267878126035
-9.50722922390330893 2.19760623139316369 -1.22326610057145424
5.67402276044410492 0.195173103982497209 -5.09437777577280482
-2.10471819524468495 2.18916276130860821 -1.70501968967321771
-2.19757186253874437 2.18955781081510903 -0.5825019029555214
-2.18799388113678894 1.85360685166639549 4.82697954206525015
8.83995683318623549 -0.453417083245480801 -5.04685924882007786
2.55941109360950225 2.1729057309346862 4.52247500902875732
5.46352494875258898 -0.551812150818793201 -4.30796859947633237
6.40110721494005297 -0.536934002590521042 -2.07721143460921764
-5.83982676704448167 2.1994983377802817 -4.06340548407628432
1.71282093682617798 2.17371457319398731 3.66586476901804348
6.81479274454424733 2.18199548339665528 0.456886448356744024
-4.36231635092805625 -0.540125349854432169 2.67267835148661659
-9.25976498571852602 -0.581398617440334164 -3.26073957571358797
-2.97804095756016984 2.19386019252931419 -4.21700645282653586
-5.86941493814338422 -0.572559925813497017 -2.51125634644944817
-2.23096836688922284 2.18275326022136529 4.23591970013514452
-2.37988285063617067 -0.887703156528575676 4.92277269640770676
-9.98709397819118827 1.81844386194673846 2.21921517932257029
-4.04714240209397236 -0.557314413269588083 -0.076290713589035386
-5.91248196104093715 2.19951339798106638 0.156259504854336762
9.26045655209183671 -4.56833391579159098 -3.63923125771286493
-0.193730614097976095 2.19282836295098393 -3.22071323742213567
-8.26873397327772786 -0.576349874958773323 -2.52847599592643402
8.8756308097375971 2.17114180224832509 4.77795293662748577
8.95505634559046726 0.652299150971534014 -4.85503367265806585
9.91140414200218345 -0.779282448001340056 3.34310440574030077
-9.70410464131173534 -7.45588380226440517 4.70658204517474399
-5.2165623966006871 2.1892434446006952 4.34016809840780837
9.90884769501600893 -0.858779009611588706 1.23753945123726705
-9.5292435468309602 -0.614520347996753813 -3.83675499040616241
7.16998055809084889 -1.05481504462668307 -4.60854089767545272
-7.28580408935463542 2.19882552989908309 -2.71690420228624907
-4.8290606139332537 -0.296636305379591569 -5.00380157882013776
5.60983308474633624 1.92087869075940243 4.82167540909890047
4.96880933988192641 -0.532297491059215311 -0.628953170368680481
9.15951333206365881 -3.85571349895699056 4.23618756795823881
-9.9046891376634445 1.33566496811057456 3.01102020957139294
-7.45614126771582253 -0.557905798356554072 1.63995039972669154
2.44670709329232716 -0.535124629242155425 -1.92082428455552612
-9.55776747506538094 -0.917490578232667442 -2.30796937210286313
7.58500237838716096 2.17760878073685182 2.90233059938659821
8.29796674365793407 0.512382263044433128 4.48609167991549729
-6.59754340003250839 -0.575005098062592923 -2.49290817581508861
-8.63402595275485218 2.18886922922241345 -5.03728567814394879
1.6520197333743516 -0.516946335124622292 1.27800567068305782
-9.90208276020488043 -5.94986089097867588 -5.02867568423146594
-2.70671898653774878 -0.557033863570969179 -0.567228986710793248
-3.89142248284372405 0.0790487652581895045 4.49998899155733767
9.65686440331114859 -4.27466069210974453 0.409072225434341796
-4.24100482428737546 -1.05541030784543799 4.49744035621329008
9.25080593726358735 -4.32679033705491456 -4.20237808400664825
8.95549402859247401 1.63328507341714846 -5.00644664584108234
-9.62526183171940275 -1.07031074373307167 -1.23264007056902858
5.45688743150179878 -0.539784131981449478 -2.59419960231695423
-9.96508247747349429 -7.16142759102325677 -4.83998316490485525
-9.43488683604033262 -0.642104191374017641 -4.16175904368775296
-10.0135530444012062 -1.07256706909562283 -4.70961160091274156
0.0251948515112902158 -0.542708313027230882 -3.4586029696000069
6.60935785376204077 2.10920798872533455 4.80895630795537343
8.57589464300716031 1.5129785816504977 -5.15681534713895573
2.506104825179027 2.17277469253271516 4.58176849969642497
-6.72201286711219925 2.19954288742237214 -1.05005596813920254
7.00582334417129893 2.18361489001614606 -1.04711027049092542
-9.2572642686925235 -0.57645896474642655 0.0250877675895611989
9.44688335032518012 -4.25451486263569389 4.87825839815764528
8.90779310314851713 2.18258645216693514 0.904070525746617948
-3.96327157117906914 -0.558985605741417202 -0.355350886995797699
-10.0066242986518557 -3.23904598226993645 -4.49525038966708923
4.05197282336027165 -0.520343533112482493 3.87542301860638094
-7.97116884059098663 -0.541855173772823218 4.0079657930088386
9.83943900572003649 0.611988909316160012 -2.77196985132205276
9.9035009221328707 1.83817381705345428 -3.81450750317304266
-10.0121690257407963 -0.444531829528310718 2.93924186878144811
2.21329072270836624 2.17332847435898779 3.79064382012449652
0.036682925477171141 -0.703341242667925637 4.92352247738411553
2.23574815455430409 -0.535601081932575718 -3.07408872116856147
-9.54666902063878808 -0.801510567012199693 2.74691923283457973
-0.741094414270389912 2.18067414419700167 1.722888382474145
6.35432719982455119 2.19017807143949739 -3.76748633081056727
-9.93387503945514361 1.4615353428434148 -2.15833223890806858
5.04993059069765415 -0.5436706171633503 -3.60301162666287578
-9.29217683772697356 -7.28410822217623366 -4.83366243668132167
-6.87971992934813059 2.19749926496597725 2.76347042731577597
9.14992217555508702 -2.46405744599523491 4.44380574375376192
9.61100502418004154 -5.95584605631936359 -4.45450899722612359
-1.95455036230536949 1.10139674644773167 4.51680964182708156
9.82258566805797884 1.42323676402782429 -0.0745546323004264017
3.50772890927347891 -0.144165771660965863 -5.00660340386339264
0.418701677545328721 2.19087041592362652 -2.21195644728103025
-6.28837999757846777 -0.55032792172017353 2.28633523829276619
-9.32583394295020973 -1.98031080256780112 4.10044880323373206
-8.36335878964134949 -0.575521503489220709 -2.08884745457913379
6.45592668127546077 0.0813336041722192704 4.48405012297544658
1.16855856952610626 -0.538587483374349141 -4.10783882048431881
-2.02594354825955092 2.18427039050160543 3.82286038496842062
-9.50433150625227618 -0.583121664921810723 -0.294947476520547425
-10.0059389001575756 -4.77897679116846774 4.38556495101525634
8.68466018553039376 2.18119930143922325 1.35988370405739345
-7.92147195496104839 2.19889106308748739 2.19877355771750205
5.25521497126706905 -1.03844118451410194 4.36358196253579944
9.58266673421914561 -5.71336801742315181 4.20968944304982529
9.8200927068277597 1.22788736406343046 0.174392924464082916
-2.58553492940895779 -0.550490442410322856 0.155403605723997612
-4.82779683462108533 -0.578293087840681452 -4.41279783726783847
9.56745824455376237 -1.06514638787110871 2.5995097095111328
-4.1323500000894251 -0.570801451323268649 -2.31647704011388411
-4.00000414947365357 -0.571812201854890012 -2.91644983576607641
-9.90475406659161806 0.528834029544123729 1.25685864001963199
-0.771963877048295832 -0.520854821946057478 2.32828533971461216
-5.55267171257013725 2.19694532567305556 -4.97925565068785136
9.91796593219107514 -0.538539337361132353 4.78412530250986645
-6.41909139906379167 -0.549683649268060237 2.58480338029676693
2.98132237600494943 -0.536258383033829222 -1.70415009599454548
9.57288820286244047 0.385110917574653377 4.49335677024246394
-0.673340898558737577 -0.127819908648862057 -4.9772551224778443
5.27125185714564193 2.06272159915489306 -5.15454411159125936
-1.77162064237489525 -0.521481295789144594 3.319777193692242
-3.32191214897003073 -0.533685738043523816 2.36219026834071899
-9.53230378374468934 -6.4528331499597904 4.18696118333662959
9.6104135718924919 -4.64421422927652916 -5.05850108602190485
5.91721218324202436 -0.521297700811355735 3.51812783424646947
-0.353378194549179625 2.19302875092488136 -4.00728664245409671
4.15226629884819598 2.17474773611716321 3.47171425820286927
3.04206194288963028 2.18743306277020677 -4.7636329259565704
9.44470706574101193 -0.586856793357144024 2.5838258895345807
-9.91050382818977305 1.6078998464055918 2.76558503748545492
-5.66771284987832402 1.12300398422155268 -4.98189555290728503
2.94768065646458055 0.797797793550631296 4.51763284422456302
-0.991042270529779445 2.19236497567011535 -3.76946519635223565
7.04832533224220903 -0.136742693932056153 4.6240863498718916
7.93236597709275504 2.1786338330014523 2.41532938266826536
-9.41389695826364914 -4.91422139640938038 1.83885444201354464
2.08708892834496629 -0.534660742095959707 -2.61116602296463141
-9.16464868698821533 -1.48951041446976595 4.59729785264373181
-9.95032964740842019 -0.162322474877073492 -2.65000915246843638
3.03424555043445121 -0.537788032189668086 -2.39537374150216742
-0.385888485635426493 2.18007886644415949 2.59256074143665094
2.36685306007245622 -0.536176382879656077 -2.94994412765896019
-8.23407801499267933 -0.554368915038571441 2.97306288671695418
-9.54930351416946088 -4.92077315470202237 -1.39222880016785355
5.02949121350164052 -0.539730647669898644 -2.27299448830394146
1.55445601406770217 2.17643659341388673 1.67896951735247035
-2.16629496448141357 -0.668482971621845778 -4.99929922316508435
-2.11017031088447915 -0.566713240429850496 -3.24911549929951837
7.98689065864284231 -0.525450546937596186 0.314563157451818509
-0.82395572699798536 -0.692934396568095523 -4.57430200825302791
-8.60406098389067431 -0.592103507644535454 -4.47586737916707822
-2.24862498539058686 2.18966784584284291 -1.20572804841225967
0.186379963355806172 -0.517921148040626056 2.02674205297409493
5.43980306305760131 0.733092557009426438 4.49280617252514958
-9.11074754987261493 -0.586505388329927491 -4.08688311379809743
-4.13588746154804632 -0.636077801121191944 4.35122547219694411
5.98767169981992797 -1.05720359233111005 -4.60684075494704093
-3.99768331292096324 -0.56246666569941639 -0.738050718714077458
9.29017464165182716 -4.55948661677461864 4.07018957403227066
3.18837546432157026 -0.147643010826257443 4.79839163220415355
9.81295501937561454 0.612605070343076652 1.58494392032405051
2.48263315628322667 2.18774489629589342 -1.85177467832747422
-8.9799866065083247 -0.123191317335547487 -4.96824494044985698
6.64716251900022659 2.18996941094928355 -3.77219929477890314
-2.42995145156406211 -0.567582623176160261 -2.67762597219401677
-0.559676522863525761 -0.513444033838434288 3.42983705854838528
1.24673570166819481 2.17775336434760058 1.46123972586540596
5.4426564066571661 2.18301124529642099 -1.47352967536026758
7.43563423563103942 -0.522294429289297479 3.15544946853946673
-6.42341578809161895 0.65562615882385078 4.47971910459837996
5.74845612409781381 -0.521762557156593587 2.99796858834600188
9.45241120388733336 -0.783782566408159798 1.13136691627073849
-3.08680187009507412 -0.614214236152041848 4.91827938456426494
-5.93045556680826724 1.43303129706309784 -4.98301719707003343
2.11476271224507917 0.64438681624489913 -5.02967407442893588
8.32182127987009679 -0.608836648928480884 4.92330410785289985
-9.90710236479924333 0.199694865249220477 1.15891825640596857
3.83713940172667067 0.333498191015596079 -5.05758744889016754
-8.36065015685293744 2.19894740358200247 -1.64271571077583323
1.42427738101003354 -0.53094624035249216 -2.6119280029292673
-1.51831785560622512 1.8565974368622955 -5.03244718455340223
-2.03970092873886966 2.19292237372429843 -4.06976063079978623
-2.70348197611977925 2.18913537737131181 0.824387413057632412
9.16054687000427492 -1.65174831052312387 -4.33690449152167812
9.87417993786345605 -0.164500007524298802 -1.93996179638025157
6.25442266868412755 -0.522404451014689131 2.26881818761786302
-10.0025428175695161 -3.82001694633365529 -4.5259611339211947
9.18510869612331859 -3.26780521354162401 -4.33706449608161471
-9.88703203491659544 -1.07549451799517359 1.24045203984992236
-0.44754436574262757 2.19074485716807033 -2.4330634669423028
-9.66876341395608208 -4.92214666777308629 -3.33353001643334634
9.93229197743304049 2.14326330023188083 3.4473361408181189
1.3742700376770669 1.20287475281784806 4.51538070559052951
6.5289912150737015 1.8183899317061778 4.58512783189146234
-8.35732273298683914 -0.575907084310029349 -2.21171373487882983
-0.551621619460180179 2.19117260112634238 -4.46990803215492161
8.35734421537725147 -0.45821067959276196 4.92458044374044679
9.8377273362268447 0.969077430818135577 -2.98768844037217862
-9.55458483393984181 -1.01958867278712817 -3.03162376339314354
6.94050469683878202 2.17968102771987393 1.32426685618291007
9.89896338678963694 -1.02129313110281594 -1.68838608028872295
-3.51168994151738678 -0.551633779507667232 0.290230354174565719
-4.4887531793963209 0.774303713763465296 4.48998953958710079
-6.74209738253411928 0.268160840667802325 4.48133031302875562
-10.0112086273817873 -1.55671094250545194 4.58324575550873092
5.55714798458944781 2.17909533067191363 0.968867770406484086
1.36132039711835917 -0.511406316994190036 3.83791289340613728
-0.107622527591791375 -1.06396927658671636 -4.99974080325785852
7.52061219408933024 2.17943037464336875 1.53258329657997083
-9.89701062782360452 0.491352822559339375 3.58515884979730748
6.25069307948797803 2.1852787133999807 -2.18445152617127025
-8.87447245449393129 -0.503492841503423993 -5.00122958081532332
8.79541680816639548 2.18394905014712526 0.400908030906952206
0.0855479184401969905 -0.528088636326290328 0.424123928161342256
8.8062659982980005 2.19029141977721054 -3.44134832638215737
7.55867787570064031 0.690219138118689624 -5.14997783053996194
-1.2739209645050853 -0.863002397040529501 -4.56797170441800127
-8.55810918111682462 2.19856381123042333 -4.23807252386280009
-9.93452644951494079 0.199053223040887989 -4.46285164864644646
5.47927509904148202 -0.536259233706522398 -1.60464858258509135
-0.254081335008888354 0.133716024252562987 -4.99243979114456327
-10.0077555844972679 -3.74458748438146749 4.56577659166887795
-1.4589991366168078 2.18981484562902029 -2.55916092803589645
5.54132555733828802 0.806023241044567795 4.49254808864149435
4.85511480700406661 -1.05988109483659132 4.47067323067875577
-0.432453128534876052 -0.521335164734778478 2.01335713898608804
4.74334776145680692 -0.545074034069110813 -3.71133252231063793
9.82043368323174981 0.978302060942553453 0.220975163688389348
8.07196469167915609 2.17818712363071842 -5.16372144433454405
9.0201743528928926 2.18962772690770446 -3.34390766644019966
-2.43820903255897603 2.18877580107701686 2.02748304325704654
9.92396648319946095 1.83744271446291663 -4.38414490763867981
7.32531291733634138 -0.522457554318418116 2.64053305551979767
0.45844511446394115 -0.537956223296830016 -1.76770029893167258
-9.38063331347927587 -4.28163740006034654 -1.33451887214266796
5.62339167565531639 -0.521499921716140347 3.91834336371707437
-9.9626633070501267 -7.35981106595143242 -4.44945351632842367
2.37620052552281846 -1.00506049407090914 4.3671791474826005
9.89107136150305166 -0.18159321110499918 2.08946732777175637
9.82497075557350641 0.204002710029791035 0.42486095750234032
-9.56859691480458352 -1.03648374479116723 -0.445297905261420324
-1.90561925078879235 -0.528059072352712988 2.60502888773575503
-8.45018609630749218 -0.576760369586440946 -2.51783732610179101
-6.32788250173647793 2.19942737546652056 -2.44434632098715632
-5.11058212526253364 -1.05765003388870094 4.66476089883110845
-5.40268037203909302 -1.08229955420410273 -4.89892311419979798
5.50852359379951295 1.70670934415488729 -5.08856482520032838
-9.54846353661162084 -0.717065263835033995 2.07807309972684218
2.89968726084511008 1.43114738051339319 -5.04593378722342845
9.74099500326969192 -1.07145018580590246 2.84012262415409689
1.10017870037332566 -1.06426573847985795 4.81136612883374415
2.24149522743807239 2.18377067921597856 -5.0131664267601348
-8.76561658855220216 -0.576989624723122763 -1.9911353860725074
-9.69611240676796271 2.19668571772333765 -0.0738205658067102866
-9.11620105865852004 -0.870815254420892249 -4.48259215035391456
-2.26419609098789065 -0.530143878758973064 2.53865877027735243
-6.64718481737284872 2.19942788910432352 0.229456357799108335
4.17419954581130792 2.17598863631888939 4.40450030836868134
1.94693838647448669 -1.05758394417969659 4.42851493606999114
-1.90155889755766161 2.18729148732851941 0.646887172891431494
-8.04071944678180905 2.1955139787293021 4.62756555635727462
-7.61588124443679249 0.649887593844034162 -4.97424830395910167
-7.8712328788154915 0.200699536655043698 -4.97127923516509185
2.62204897989899743 -0.520502819750579326 1.31821220590072286
1.06968870919458037 2.18514578162241913 -0.672887508292936531
8.84483185989049581 -0.952990721447511735 -4.59652643301634978
9.16870503513092139 -5.36604160897539995 -4.63930404261607698
5.58965353602333348 2.1877101597625459 -2.81896328331492407
9.81157130851273251 -0.132211233559225122 2.07032682923663858
1.13107593926497496 2.19103482258253202 -2.81827725428900644
-5.59990579594592219 0.656606169512471305 4.47860072187412328
9.81033914031802645 -0.098249590376580806 -5.02852805272247139
-4.69377762721446512 2.19449482831871601 2.18867494319203226
-5.1912564328003219 -0.548758906858395901 1.89633785343288963
-1.79443882567364765 -0.549494383060471936 -0.0212706125294235167
3.49879924947987675 2.17969602741791579 0.383763514053265142
7.44510698563972628 -0.522588717504724687 2.49618853533057994
4.06102604328782757 2.18702299256198529 -2.33484664424133959
2.26885874463799952 -0.853668070251752842 -4.58165590062495731
-9.99693073441183699 -4.85230935707704791 -4.75742227763982939
-10.0098383896204872 -1.06778004780990732 -4.40252025025149329
6.15670271085585341 -0.613038097332438858 4.34842098283588818
8.5927777522425508 -0.527376573938217796 1.7676259230578053
-6.84392072938545759 1.46139554569900132 4.49122446942063203
9.65532558291719845 -0.571742711373591561 4.92372565263044226
2.95344328923285682 2.17548079182415144 2.12935605627453661
-4.22815082492073024 -1.05626863519445369 4.58799421507333793
-9.23650993124064534 -5.54762234887617911 4.73521663657491221
-9.89622823610758395 0.694552860380019621 4.06003901038914439
-2.11970835379172229 -1.05616844643156349 4.59696273507559727
-10.0076295425373996 -3.59615307048729838 4.61315307785710349
3.78434918474887017 -0.519606105890220493 3.41243795456685106
-0.981640499023079593 2.1854056364126393 0.0167700435308230818
9.45017031108347894 -4.27355104230295613 3.29942441089550709
-7.14395302222712658 -1.0649376097655181 -4.54547430446461931
9.92411651850416199 -0.546854439470264575 -4.40991420041487014
9.7029326224048269 -5.18228780864437244 -4.41222881651222654
-2.82582954447558565 1.78651906779011616 4.69160714607461671
0.782691011074794551 2.17878495647066117 1.5028156990665873
-5.09826403291153785 0.979712095689221574 -4.98199478229750792
-1.52822889426694264 -0.51392482065113132 4.17896617329837827
9.84303858412904553 -0.144479298665969563 -0.103430735881705135
3.44829291121709769 2.18754012743186843 -2.2923661963650992
9.83847343008003605 0.714808004809631692 -2.40896997114078992
9.48362420039292431 -4.27504404181805953 -1.74990388161483779
9.67977665618789018 -4.37015709294750643 -2.67785056757093054
-3.89659012143604855 -0.529612344512747524 3.54037587199638315
-3.06479502063597531 -0.539056103263527375 1.6912369055393337
3.6898925376556817 -0.146066385170166763 4.65866733061917149
-4.35398081441044038 -0.560955027737679024 -0.392491008831271082
-1.16945611772897573 2.18255951217104327 1.94709227502629179
-3.94049271180999749 1.92040958210577228 -5.05852488793337063
9.59480834875299493 -1.40392690880534832 4.14195914176058277
9.83825012354248862 0.871284242356568317 -3.22435342298430871
-9.25558348921692264 -6.07652572723676876 4.55242678259584466
-8.44183306738096917 -0.69583776297879163 4.28241354210375835
0.188830679008892915 -0.540403338517892795 -1.6468497740911261
9.80802638083973832 0.812132039285749174 2.15583140457190847
-4.55570245458927836 2.19563092019517025 1.17576720663133605
-9.86905638075507419 -1.07508811950882377 1.23000504584100967
-3.46778535244770669 -0.543660297547636451 1.26560993011384815
7.48180035089644591 -0.851130876147177196 4.92256677797870967
-9.27077660083215882 -6.06285722796441995 -4.78757186348995578
9.46861658134964479 -1.00568471156451955 -2.11161966391746425
-1.265805759777485 2.18922251530761702 -2.2546189893369708
1.40908298743096583 1.80632882739709055 4.77276668473694254
0.438903710206679065 0.119663736609512794 -4.99502789511500378
-8.88299070487203046 2.1976944184693088 3.23996527230561604
-9.90645215399501389 1.14214768058928762 0.933255740763521913
9.25768629956820277 -4.43133698256485609 -4.09714133812485848
-9.93537660505634435 1.55708312130686077 -4.35505347148379052
-2.471997261026881 2.18873266694656321 1.00475627394534284
-5.18521640686811303 0.326370279199448665 4.48060058930941629
-9.7902441192784373 -1.07314735443825371 1.60277777680944178
9.8623546952717227 -1.0720942176450472 -0.254149517387496471
-9.25443631452269599 -4.89039315381059936 -4.38023753811392602
-3.149913902799931 2.19071027055305567 0.161269979452124318
-9.90119367998305933 1.45449087208625238 4.10853695909944605
-0.904115839383621278 2.18121923225766112 1.7399983429149708
-9.90468636073153341 1.56303845983768319 3.56139350989611181
-6.87602648107602565 2.19917627194668652 0.552761867161981724
-2.45787291136253394 2.18401554538573484 3.95528889404618678
7.76496159430247612 -0.522436914546004938 3.04163559926969906
4.89811776141305266 -1.07098267315557072 -4.89669097884059568
-7.45234878431680414 0.578192111958939492 -4.97398516675824354
-9.39142486339180138 -4.82276630029126085 -4.11685900974607044
-9.93171524426623975 1.2225836159703154 -4.64418724956360052
-6.43181593261199769 0.401258526286897566 4.47961564118348932
-9.23939060051131378 0.546030453646497715 4.48502837428094647
-9.90614880168551792 0.797658991946792906 0.557780235159888949
9.34283917569955236 2.1842915091457229 0.151924698922603019
-1.06909356039834291 -0.12056844476563125 4.50613793243996419
-9.12778590784125932 -1.03943138457113315 -4.99638851857563893
-3.90389350087861642 -0.571560080576351881 -2.97743897647354627
6.425832539502907 -1.07529223345954184 -4.88512825230464731
-8.24073446320437242 -0.731737990836703101 -4.99545609088866538
-1.05391635053863086 -0.544285423772779553 -0.329352378617782382
0.240240344809336204 2.19270242512572855 -3.12506931604302274
-10.0072861073317192 -4.35613328123467358 4.4277964957167999
-1.71777036334528543 -0.542739403872504633 0.879515803467853297
-9.94770456909705914 -1.08809955009030457 -2.68158713869682819
4.51912570467467667 2.17734680637179689 1.24049830578288733
8.53680508945595129 -0.538883035857779302 -3.07318481544475253
8.25690128907765697 0.0545754544546193515 -5.15317178743197779
1.18439523659392765 2.17533272118793564 3.69053375633990788
-7.97481820219758664 2.1997787689527093 1.42241799506032951
7.71199382434007585 -1.07871101809609837 -5.00675724635386032
5.53531511141507959 -0.189541354581365562 4.93045846712756042
9.25482398943114504 -4.52200364432960722 -0.791014985348275856
1.9645023323095383 -0.531528948384654143 -1.67209461332797216
-5.06224577588603442 -0.557412253615433784 0.313553343598032774
1.46071297979719694 -0.532908638035160198 -3.42426454269463898
-9.98428262023785607 -6.03299690145049539 -4.82266884460821998
1.60578720461116164 2.19121646634370837 -3.80158887351690611
6.57804484541876899 -0.520950426169762837 4.30681009088419042
9.76423702733460708 -7.40978271642860875 4.56467453118938504
0.244489084942697887 2.19333955609182896 -3.9799881561798709
4.02361292756479472 -0.550218969761723242 -4.35762849873531977
8.05043787276689571 -0.535697421435495147 -1.8754527737287614
6.63982705985246202 -0.521844826954042551 3.4580332039811057
9.15893858810054873 -2.18999940495443735 -5.02920145533588148
6.16358836177812996 2.19016228915944167 -3.63801415807136097
9.52914430035611559 -4.43664312028591823 -5.05945756947791292
-0.758970194931510855 -1.0576836664334095 4.44988046630079026
-9.27241335203165384 -5.6269598740121598 -4.39559659345747988
-1.23696872922018897 2.18318478980200137 2.67303300984871761
9.04324410334568185 -0.653848184666647847 4.1249435435271895
-0.507940145175953095 -0.549257852870872698 -3.14281951614606037
-0.328396088867100644 -0.0625887723004401736 -4.98814848431027169
9.49653348250072504 2.18131120559300129 1.14242278200566383
9.72494167677359478 2.17958327486584436 3.07626874402558093
-7.72385739775979108 -0.557945189811292708 1.65699555206139171
2.27304341818534139 -0.53502119490606459 -2.20833505504033267
6.95992114065374867 0.451479225543927776 -5.13144001232559877
-7.38303691495901671 2.19970827283499792 -3.65289543143138973
-10.0308208659716449 1.90764861032119382 -4.20789273538026709
0.842004602026483195 -1.06320645812940318 4.7586087591302082
6.64336317834016921 0.688727741690371875 -5.12321856048742941
9.79665922047792925 -7.03760308831773962 -5.05382983986690881
-4.56528115189457395 2.19034413486729918 3.72466970240536277
-10.0301923460386089 2.174981062292761 -4.1304539502151929
9.4608042359420903 -1.02965545299981254 3.37651770559706099
-2.19616801199285439 2.18864429666998639 0.230576037614153073
7.9222861654538379 2.19078791932259698 -3.76313241450362401
-8.49362139040917619 2.19826593439211582 -4.10628911777982708
0.138318977514611086 -0.541354550767763731 -2.88612553593123833
-9.65521958231701838 -3.65246224567552424 -4.19066360125011084
-8.83732837233176838 -0.579805267721280271 -3.45609068689252297
5.9490432841013714 -1.06347517720376938 4.632366211248379
4.40683175624535028 -0.984731364347404048 -5.02080143033677206
8.47709957208792098 2.17932540417310605 2.57194795362363404
9.16546677897743933 2.18395024281813743 0.307697654436900059
-9.9338714530767902 0.217682417474043877 -3.93902159176297406
-9.56274380824201664 -2.18840261065022723 -4.17579026089876848
4.37288473753544338 2.18199278280814424 -0.845494101921434149
0.204888735540367267 1.44362741625256819 -4.99848227686126911
9.81903822160641226 0.339418195911539433 0.965132135877864283
-4.18548548178628455 2.1915446974466688 3.02278906688203497
9.9438142297534089 2.08945549052688584 -0.133908806033176231
-9.81043148633784057 -1.10265532776966535 -4.07079100321862075
8.21623216223086672 -1.07619275682253934 4.8458930639574973
8.16212073399716331 -1.00412328129535999 -5.02256938474095715
-9.56301530710785386 -4.92315727558258764 -2.61014378703436112
7.21107469020131031 -1.06788537210951406 4.67115411251475976
-6.5099577410988303 -1.06373982870136197 4.85337319361025354
-6.57057015161039892 -0.971729595545804958 4.3295554815431565
-5.98228569344927941 -0.573960240930311394 -3.56869806987381688
-1.43588814626981365 1.55543367820794254 -4.98943824759082766
9.62240690472707527 -6.21044187183725427 -5.0568584477948697
4.22015569082834929 -0.542404549719819884 -3.36009342888344875
1.45628365728176057 0.093860949432241339 4.51484062119529916
-9.98996220536363744 1.83802713581845323 -1.55866912952327663
-5.13967435077563106 -0.555263109428263402 0.74984312235976136
9.25639977323793417 -1.90391481526101569 4.89657337829414452
-5.97771927764273858 1.01275759941068344 -4.98079365715909272
-0.615952501503649219 2.18206069166329275 1.12925102306587766
-2.63120130925778017 -0.568287974453910771 -2.01002628873863243
9.15869957136333568 -1.83359227747763898 -4.50311424545460337
-8.27874753446373113 -0.562723653982112104 0.556638890808916043
-9.9011776072185711 -0.123136221046485708 3.53688606181691734
0.820060862002714552 -0.514023043153796655 2.2308035804625499
3.63148303459121191 2.18844978412610836 -2.66820331854601811
9.84150365524456028 1.7510843344022311 -0.987869164328487592
-10.001441767896889 -4.36692398668475246 -4.75462924194579095
-1.64007389549626592 2.18575849113441389 1.95080699990535544
0.271430092313639182 2.17723524962254977 3.72718898795152676
-6.17867375776564387 -0.574845454846574455 -3.68165476894195454
7.84038249734592618 2.17851745663406637 4.01873904320316466
-8.79963974723746745 -0.798398090125377213 -4.99654088646876637
-6.28044089049701615 2.19881261105559922 -4.70977055497833064
-9.00513938537190128 -0.573184736051334354 -0.573121858018983965
-9.92275306933677825 0.639910838169541418 -1.0787186134461153
9.61978764553312793 -2.36453720266873058 -5.06379130183342241
-8.40631739126950528 -0.566500757982653425 -0.165463775413974196
-7.78992181232000647 2.19896389761838496 2.16800783838424982
-6.15253120558759914 -0.171055936654000929 4.62847549389769508
9.9197649488719648 2.1581607660406692 3.28556957428054819
9.79522448864902628 1.44115998938719758 3.10593567534094106
8.31612110103706215 -0.526851365954416284 4.20261368308837913
-10.01171270279821 -0.23007718025790827 -2.29775201209220814
-2.53518488029387923 1.98154261010119326 -5.05495453686626028
-8.10174593238071949 0.16293727687830728 4.4828180806887179
-9.38060495229428959 -4.3449061814797334 1.80732760690828842
8.06292224900845333 -0.901244649440657852 4.92252927866638146
-5.3512196698072314 -0.752957391818197319 4.34897630273382241
-4.85951612097417218 -1.05500674265588978 -4.55084113636415033
-10.0359335071947022 1.95137596700242844 1.99725390863480912
-10.0161134506595051 -0.440306163553348451 0.74225382312755972
-8.88569233569745798 2.19773086639906401 2.74174649834009054
0.786081146088650096 2.17623902689904947 3.90844819557387879
-4.87711237552788113 -0.571684657459138212 -2.20565126082357299
3.55903580070821191 -0.531685553531507149 -0.443692558018945249
6.48192678636176112 -0.530402278328860333 -1.03139181566024596
-10.0159994829391774 -0.402267632726087287 0.813865830728752626
-1.78275101993720564 -0.115553352373516535 4.50775675865280601
-9.43948845029484218 2.1973449200107158 3.54572540635570865
3.74067434900656082 1.38599597536454522 -5.06232887640098639
2.83868968685584155 2.18900805764060546 -2.5986850492632021
-9.19737783513107665 -1.47806552522556878 -4.53626678002365846
0.201183387525134566 -0.100716193523669381 4.5042225788896415
7.87082558040039615 2.17698410545602616 4.65404368386655687
-6.22410975346236039 2.19948229812984586 -3.13052190516668283
-0.462346524931204483 2.18979019525721297 -4.70843433219210539
7.46159932818598737 -0.200504870192568657 4.92878287294897266
9.92020796266784899 -2.73419049317268215 -4.52365212574369568
9.62088227045064137 -4.93935805927493821 2.42468127045566684
9.67325237623129297 -4.88645531473052674 -2.44883743399378195
-8.53916008307994367 1.55591832334307623 4.4953761585006502
3.84898077541231221 2.17622196152929437 1.90770565541192849
-4.5670255901044543 -0.536944903376148419 3.37227642082223333
-9.23965618240053566 -5.31151642842128435 4.46561659177949899
9.19543296028795965 2.18245257820185845 0.906485090852023556
8.03319093611045432 -0.537493206228743081 -2.34786251726116602
-10.0078375775676491 -1.05755323394564793 -1.61236196201181192
4.482395363110391 -0.534156017869519939 -0.916256850452542126
-1.65609510403911608 0.36072779960456014 -4.98495418908771892
-9.34300249874343081 0.906733754324519303 -4.97754603397149342
3.56175169018882354 -0.539294023700253145 -2.12045509136853427
-9.40170194632950285 -6.56153361201794993 4.84658819725832757
0.302965316229255599 0.659369049067846213 -5.00021997853727385
-8.10609380399145429 1.62783234682989431 4.49572567947335333
-9.76410297563968044 -5.94877136193209299 -4.28609467976952452
0.856125370084908299 -0.533462216291633928 -2.53557427983341377
3.04118750227326462 -0.519828871430942807 1.71521943088922968
8.39218029220353579 1.42124072724675821 -5.15747274539570189
