ply
format ascii 1.0
element vertex 774
property double x
property double y
property double z
end_header
5.03752685075427209 2.29885956696426019 -2.82985036545610136
-9.87435217097393014 2.30790991573300142 2.79715505246068741
-8.42197471777750373 2.30946370171547244 -0.0364936889682346902
2.47202124864799799 -0.407574328566137845 4.35566423406675085
-9.35388341322252437 -3.03191898041264496 4.19370442180601177
-9.30407280595718156 -4.347891317497246 3.43895659896611949
9.52595909705154043 -0.495041610138808597 -3.52957563695805776
7.89071889681942729 -0.968043760407226839 -4.82679793666726553
-9.08567674721436269 -2.08981792083981777 4.75791498430934379
2.17620858597574696 2.29927224231769634 -2.16931877551937902
-0.271230727990830589 -0.436626994406162094 -2.42035254728585691
4.61816163663979129 -0.410477632034766449 4.07181861346981133
-4.58330096220184569 0.789246383327565471 4.56088928884574774
-9.29749385058504885 -4.5239221635290976 -0.307968044349408665
9.54383412347459981 -7.30946833336726609 -4.76955933688938494
9.32371740965286122 -4.68781513909359138 0.269205373778926171
-0.610686707098218373 -0.577960039291396388 -4.49735272461739566
4.38921892964444638 -0.410242151796260335 2.6979475355475282
3.16447314319035922 1.26526115459975763 -4.97444633991103125
-1.04057107185239595 0.152653739635664282 -4.91015782431521508
-9.31197952678355279 -4.79195360743223286 1.11360725093171764
-2.84715302147824012 0.801697647414344017 4.590864713498779
-4.17727298655744672 0.696659379057520844 4.56577282433431808
2.16837774105274761 1.91279912060703516 4.66146996663990709
9.86633842968791974 -0.0473414374555485087 4.03090972733108543
9.48243312253113224 -4.16638114274157711 -1.05201788356526005
10.000229427271627 -1.15098864397047929 -4.79829267054068165
9.53812159189005015 -0.769767318255393906 -2.16696567282814323
3.34313100450252643 -0.926850185789369507 4.99341552286855528
-6.12849762042319135 -0.0871289388575860746 -4.8961979020494546
9.98416334366091718 -0.58259263514420323 3.07680979086951334
2.28329607417575975 2.30153115791895324 -3.55864346980043722
8.36913397359433198 -0.951085990049419405 4.50982661120421646
-9.29753059390435332 -4.63623276121266592 0.410713747507122584
7.4555588629186218 2.3006066133646832 -4.09938060095988899
3.38175542863567724 -0.428894442898386574 -3.64166770726134681
-3.08924731808982411 2.29743335960235839 3.54835067775556157
-9.81126338536116549 1.54468723092763405 4.33024921766122706
-2.14492754125866103 1.23341190320246907 -4.90881736058223606
9.91849140883649305 0.0377229441082584313 -1.57437651141128176
-7.30394076314933649 -0.463658818839261966 -2.46234881193171962
-9.17689154724709333 -4.9368202997104067 -4.7185025088189958
9.36403695841563355 -0.586666113988142279 -4.99259971436369199
-2.29579915285570513 2.06250212500461272 4.9089090116887224
9.98557763618495287 -0.470805562203357786 2.8009184139037111
3.31673100765754914 -0.427586224215123656 -3.12377209834527614
3.26191579539833842 1.42691649894042905 -4.97458748681377294
-6.3456032160595548 2.31025406950076473 -0.96034067173087756
6.07539588112484719 2.29658020421495346 -2.33534520564958337
-9.21247038188464451 -7.12126522616873814 -4.60727627481755864
-9.7959340635262464 2.30703966130759008 -1.14268557716304331
-9.71702088789597163 -4.6207022067447765 0.597101451186807131
-8.43997090120241644 -0.320147150449477724 -4.92160523162442409
5.18944373327500852 2.29516932303732668 -1.81395101574033135
-9.95427281868605895 2.03534491691902852 2.02940709270092468
6.31012665749907065 -0.514090550633971022 -4.51352008671147953
9.98467043909973562 -4.3177197640766396 -4.53760443342147735
9.52004909150478618 -0.537269600478023079 -0.160373517162677337
1.47322760052524138 2.3019326735454082 -3.5252328194632474
4.43445530850612446 -0.953712674983921538 -4.68211628341160768
8.57908514686890911 2.28958441698871562 3.16142654990627481
9.97305184507621512 -6.4080774123601536 -4.442843177511695
-9.27911723462625915 -6.53742478216724443 -4.24054087471027596
6.69205786820446136 0.612389688347636407 4.55978014454960423
-7.5937053560035972 -0.478147717592410371 -4.39372877229447223
-4.5785768438318204 2.30798123740326 -1.06578130298020346
2.42837073142485504 -0.403375066361333856 3.44197938440038298
-9.4204096231516381 -5.27709854699851189 -4.94700417265351255
-4.73760352498142634 2.29539040065043887 4.84784362914088973
-2.87323841840041894 -0.930653809445336599 4.44633679653653235
-9.80247167512875706 0.848430711021040396 -4.88771393954555489
6.10793767162609402 2.03650021521131031 -5.08270786727507673
-9.53615106414053493 -7.0417478755917795 -4.26388899736715565
5.84977829169927066 -0.0321719781899743873 4.64361078508950875
5.55587154894748192 0.264292593983649571 4.56318769180388806
-9.17502880358781603 2.30740204350168288 -3.16581481606532122
-1.3732314528257592 -0.762661341483637734 4.43339313951628355
2.31944983139148686 -0.145436173221399484 5.00108894397358839
-1.07851335679320726 -0.408590258831381725 2.85053741958156115
-1.38876513376291655 -0.418893953582679168 2.00691871628022334
-9.2764679175870608 -3.69512095179008115 -4.11750039274108737
-9.41812962228543959 -6.80979849867849207 4.27151505606024351
4.57116303959161385 -0.410011161299801863 3.93603349346340581
-3.30475990735350278 0.744018045360103741 -4.90751145623273022
-0.144681991849527042 1.10542054424976244 4.58783338513139949
-4.40368304696655599 2.30744230944953044 -1.03083409757969746
0.129470057301969949 0.976712308387298389 -4.92174581842317949
-7.77142533060993301 2.30987323325864047 -0.901663141139258273
9.823341307724613 -5.24835414389148269 4.94858897570726253
-0.999697031936604641 -0.410967996387149481 2.43647661525746662
6.49253336980522633 2.28748665861858447 4.70850078252326121
4.88070284411760902 2.287386440308814 2.24723325359312387
-9.68957959199647689 -4.80599762201220582 2.2331927611261726
6.04861383078503678 -0.413130990793935449 1.40184443119410274
9.50772938413628665 2.29447282893802651 0.409899148218145493
2.57946008198239962 2.21874448886220721 -5.01824472918257136
-7.4638038480995661 -0.462703497480995041 -1.65844496228557281
4.19980121329342726 2.29208940003643136 -0.445669604896475502
4.97082294179350281 2.29941124343173042 -4.81903609861454463
-9.1564198254834519 -3.45761355460989517 -4.32281576438104231
-0.741179025735086316 -0.425938623905344427 0.131845604421873958
9.96647754246296458 -5.21903232417334095 4.63405879570805901
9.31726170134884946 -6.87068800218559872 -4.43588810630368258
9.84860530297033776 0.859676436159063639 3.94115932732486973
1.23026858797577909 -0.286168509287198281 4.99856318306307568
9.86434867243704439 1.51568417047670279 3.34990649344123437
9.59856878722946227 -4.31612420798711494 -4.98212686782535297
-2.66192819349915544 -0.415080616740452213 3.06749227863952356
-3.26151626913079218 -0.447896712763461713 -0.667112141866233244
-3.38250342339474308 2.30290563923778668 -0.861735126246294003
9.84125662488862751 0.52279997546191892 4.36840432473685425
-8.9441454610947293 0.639306865130800817 4.56033280784853368
2.08382382391121412 -0.394010378938377481 -4.94329795855948539
-5.83804110107700147 -0.441232275641627758 1.66687866471212454
7.03766581452550977 -0.0284314457131219049 4.93561667214928779
-2.64231654081933565 2.29858776878311222 3.07379944854980769
8.98249389105184015 2.30071167699551893 -3.47504492956855771
-3.30585224083158113 2.30199489902277632 0.392462098727362374
3.51066024691916168 -0.421547780777907388 -1.00688432129518013
9.22705951197027296 -2.76299158770920039 -4.87716072794014721
-9.81642842778117419 0.361282564527812267 4.2442229244399865
9.89891397143666296 0.951411185900726819 -0.301147727163353418
-6.60891234988288101 2.30793868499944343 2.60882962030875509
5.20616362942139865 -0.416497481185505947 0.815151761072332892
9.60924534475801373 -2.30350823347344669 4.96450809927062231
9.02405824394095646 -0.0248064910393006842 4.93191893593127872
9.51818688372195254 -0.480776417669789513 0.421884886045698515
0.321840529295239264 -0.695218207150563705 -4.92884740112603659
9.74549126511771036 -4.78209098727304571 -2.34278096275692516
9.96948397690063359 -4.35580346839489074 4.91525996008672816
-4.57245506472583063 1.89645270557806134 4.76018985658915472
6.07008438683784046 0.247463515690933084 4.56149638338972707
-6.15337946986667372 -0.443064950822616432 1.60261888202569236
9.71309222275824524 0.923391368474648644 4.54154464975838845
-1.01463114598765625 2.29614396633480711 0.279326308072473273
-4.57190978377326562 0.0343792608129245975 -4.89731329309405528
1.27724857267807512 -0.403362840358780006 1.75610427677017178
-6.36899575206844037 -0.462841277224808112 -1.9606645429769749
8.7648697216596414 -0.0227350926550697573 4.74092479314053872
-5.67575249979955743 -0.969809294464571536 -4.78822241003030502
-7.4607285315467804 2.1255293547541747 -4.9840391292864652
-4.43309282854226172 -0.443992193482393382 0.401814018703838594
9.86024896876577905 -0.956284850907115902 1.00320576472887457
-1.73350111866348811 2.29273184384211337 4.53274056837763339
-5.91988875709926354 -0.971168488766971927 -4.82350951333108746
-5.97752826110925106 2.30982556471017819 -1.73993421236174006
-7.41683207704727465 -0.0826611525486702914 -4.89301691283932794
-5.57670798464917272 -0.460656053710024105 -2.46209180675631112
9.45946687704482514 -7.00949480430431926 4.93148170878360759
-9.14572731310608766 -2.79461565352203856 -4.29554628711999076
9.85568990483712071 0.469133844928081745 3.72381592427284058
-5.46441077626662786 -0.762986161718032019 4.42478658293210447
-9.32379177285736915 -4.56299152710665012 -3.26792645998284703
0.139908165645025867 -0.0474686481224923934 4.75943642971876901
4.81669469201428679 -0.419785395122715066 -0.0932675270693928138
1.51721154976987815 2.28494838588703386 4.45478149145967528
9.23214152537711641 -2.47166211019907234 -4.6939672817443423
9.5641354700812844 -4.82015079352710973 0.173084271050107541
7.80323479524646757 -0.417795797151344461 -1.06376892751554863
0.930874022181824579 -0.411707724218094262 0.34426592221930491
-9.56803079327501926 -5.61726261180750175 4.92030830108532591
-9.3970663839160693 -4.15593817648990793 -0.581602371565843934
-9.85665598158755252 -0.00989313935756700076 -3.18480219276377507
-9.37338186373297511 -0.47248089679746047 -3.62576857434126198
-2.57097646272341995 -0.456609829437489401 -3.35696973220809047
3.68326985130975482 1.29193341585680166 -4.9830118587987613
-1.42946107330494465 -0.421384711225402442 1.80721713525190308
-0.790364336225237052 2.29856049438428522 -1.46596667971478856
-9.84158116198723931 0.932297288899925469 -0.972060274585752282
1.00361633626602287 2.28893408117714481 2.22611711494158859
9.22937325778651818 -3.4140632298630913 4.45315527569290648
-9.44928729799981859 -0.575629491753172018 -3.63309384682258374
6.03698851654407775 -0.417485750966422486 -0.0580692529626678638
-4.76602057144804458 1.00043110661849832 -4.90466566811632632
7.5396929246322193 -0.42482839866275135 -1.97670854580122923
-9.10547888422955687 -1.5240948258639424 4.91098389836274496
-4.67299764034505127 -0.435273186922202182 1.95545237379747605
-6.15606888084672565 2.30995162521136344 -1.76703547748294865
-0.116609808872351825 -0.433473577803326959 -3.11129437101520123
4.64893018445797068 -0.431807163250204962 -3.46753332237002398
-5.54740924061711205 2.3009255085105913 4.45993348261184863
4.07120623442515672 -0.957656875249270789 -4.81231430975000318
3.5261503198449633 2.28428209560320816 4.4955839033817373
-0.476556431709053208 1.13459826733037517 -4.91824492062014773
-7.89902228930162753 -0.980771247530813461 -4.7483559732325924
0.452094418610917981 -0.513472464164495324 -4.93197475478513425
0.100745810777530476 -0.422949128199465174 -0.538158011003617043
-3.10364808180476937 -0.428128296134735797 1.67928330590856634
-9.83484822542984283 1.33464829233258375 -0.359362315754246098
6.29705082707473451 -0.418083955280163122 -0.534476371557064178
7.69765126750224571 -0.4231967365316186 -1.6757025309789364
-4.24493628816190061 -0.946543541355119977 4.78650382954560083
7.71223337020101951 -0.414945600375936086 -0.0145208358340510532
-1.83413898409028975 2.29773097333596787 2.42502475609284884
-0.130470373547298235 0.476873947159953959 -4.91849044699653959
-8.11575499228556119 -0.467172840379884602 -3.63375971609555437
7.44870299734370889 2.28872834476968245 3.86180537889832287
-6.87291744317208853 2.310931917517967 -3.97880513661708868
-1.39390199738957854 -0.952174515083806128 4.95062022663834345
9.34160361122553162 -4.67200490818416458 2.9968948483017166
9.97492988211155662 -3.96654022596041944 -4.95531233086542855
-9.226300145146066 -0.465290547995271087 -0.513168542000330574
-9.53816205258114991 -4.15374353473240632 0.43216860502163601
7.38010289596638014 1.24590606711529728 4.55570512758577362
2.75607117579006999 -0.413958766620658614 0.408637879035994189
-7.13445028364018885 1.58565141506515173 -4.90340258386269401
10.0195696241815408 2.04985270486195059 1.16726750365311172
7.19155759424985153 2.20366247954481898 -5.09268708091542432
-7.19971944003002751 2.13956639519583058 -4.98444631388044268
-1.34862017277294743 -0.420704402144873035 1.7869382515449268
-9.15921176935370873 -5.18913303780454616 4.53414590826053576
7.02241771027356876 2.29633457892912585 -2.03339140401130569
9.99996136817813408 1.97500353568635068 1.25781033188619973
-5.29767181616186189 -0.955006933215361453 -4.50073299032168261
1.17577277365393518 2.07703990618144685 4.90178460096207669
-9.69469527549488852 -6.50614499091309995 -4.96035684191420057
-8.54180536613280772 2.30797596451662423 -3.05992607525782345
9.15303638907191086 2.29902500799879128 -2.14637550264563259
-9.7194036750381585 -4.26187912231956023 0.960183679018365654
7.10595539726080982 1.36472845710782242 -5.05229564042757584
6.74969060619566275 -0.443237986190653965 -4.35467883347087525
9.85063822816090351 0.751698206807214886 3.87170172879514318
-2.94998446718491847 2.30154775065324024 -1.78039744080530382
9.74793326111426239 -4.71511377987996738 2.46713711126865176
1.34182533880403532 0.995082128762009743 -4.9363728839430534
0.486507607898265526 -0.400400878205324495 3.4496601737205923
-2.55812984238611651 2.298645280111554 3.0438941589201467
7.61082150307497862 0.633080020356337481 4.55883399612052198
-0.353505221792459301 2.30368954441516305 -3.38879733643912306
-9.20644838790389919 -6.86997090947851685 -4.7304942219998809
-7.46304588951262016 2.30602498219397267 4.02741406633812549
9.35414486922758215 -4.63350277056132676 3.87735020815529685
-2.59339893015174949 2.3039644914463131 -3.60564992220094771
1.3214666157193995 2.28546089629566884 4.69312854087082698
4.0417781608101766 -0.429378237593338097 -2.51049316834674707
-7.32130665348035947 2.31001025872745247 1.66572034986147122
3.10843508411876579 -0.418760047044249351 -0.50890295903995586
5.29140609553461783 -0.0332896987737312453 4.90299303719285273
7.08274205001413648 -0.427633171859121586 -2.87956368297846765
9.40386702827326104 2.13382689913569257 -5.08781674361073044
-8.3651219670520458 2.30999255107173695 -1.00068120728235432
-6.61142374747474371 -0.44369250285129086 1.81330261370523638
4.45541212020763577 0.885387055570703185 4.57006284954223752
9.537658690035002 -0.821901154103026998 -3.099921001271293
-5.66046035805377379 0.956648012026884209 4.55243683487779371
1.41963069922129614 1.88026910442432071 4.61767668447926383
4.0745110293368576 2.29995809789780958 -2.98346143971580213
9.25156313108438333 -0.544499471671001434 4.19090352031850699
9.23245196385873257 -3.41475465983862581 -4.94374036722680987
3.24746379312134614 2.20613214965572002 4.89241952488609311
5.84144695309980921 -0.409739863546755234 3.4311722060376213
-9.31350954351882621 -0.469505924721104029 -1.56692355206898881
3.98199780743025933 2.30165488509470073 -3.61066737938589188
1.28950300380265626 2.29941300119291281 -4.60047772226987206
-9.69171467340103021 -4.28572513167630831 4.92170962690590752
2.46561787035859625 2.28368153968567444 3.2015687046689254
-9.13666914015570519 -4.35623045284964761 4.83559621541549056
-4.72203995490431172 -0.44764222460081815 0.0320625322350911873
-2.00041671748241301 1.72592162169111418 4.59498341913385655
6.82228753333603244 2.2888973927901235 4.3185048497263665
4.27908027631467824 1.82439346927311608 -4.98963161083781159
-8.02794816160422542 2.30721052215359013 3.731640064827356
3.81304652482651996 2.29989427470702168 -2.91604303902011264
9.64000576925112718 2.29924732085186978 -2.42404521580585408
7.09425495565420317 2.28826456261865108 2.39957713161999964
-4.05414180666335877 -0.94449973675956489 4.68683365105087635
6.73977117756634225 2.29417031338395594 -1.3873913973613563
-9.02360581274860074 2.16714712431626788 -4.98516760618098775
5.69360320389702057 -0.440466547006200193 -4.25426435084705723
-5.90139240542694044 -0.458043112339919622 -1.1273199764156927
9.09368337471244281 -0.445054570242832626 -4.04263857704363527
-0.794914915991801529 2.29940222469848532 -1.7930329220945318
9.40650481862765631 -4.81846251087789668 0.297178390755830302
9.7087201815558668 -4.15846780657331561 2.7241210487258507
2.31497150062715518 -0.960389224988823731 -4.91612184086839132
5.98205512222629743 2.28864228543906245 1.73361620906527447
-9.85271758532687869 0.467021156422670281 -1.98855937986066889
6.58868596581110477 2.29651416282198051 -4.94007129887156715
7.39460733664017766 -0.710315015882760803 4.42956369482597534
-9.39513208673315248 -0.458081111865445978 4.11660358417218486
9.23300047290674719 -5.01578772067166323 -4.87977978769909448
-9.94751048939838078 2.2926593179326531 4.41696556795725392
-9.92569829136805915 -2.31995923984874342 4.85541455925798626
-9.2874034822856526 2.30768958326421503 3.24345405033245182
-7.52414831366792036 0.532906277556285946 4.55636702532790494
9.36642873758278505 -0.422645969917596676 1.82202559835215805
7.00915649972033883 -0.95923572372974264 4.88803571763357869
-1.97390778201840233 -0.833174021130489662 4.99583654859996695
-8.56276956418576773 -0.466362138896655343 -3.10899901029769676
-2.30558384738760314 2.30017537621536272 -1.62077999920097326
7.43845725071926722 2.28795040339354738 2.84295585599626621
9.53360374317083981 -0.623001252235989678 -2.76182761193755866
-7.70202876106362222 -0.456240373138338096 -0.648774281073005721
-9.1284698114527405 -4.13091088974299314 4.81246894617654775
-7.58634527766451772 2.30993409493667823 2.01444999998735508
7.89636967295634662 -0.427423732064785622 -2.94408647278349411
9.60805420096273899 -4.15949810380078855 2.28268057505223076
-7.02258205095604282 2.30824654026165943 3.29206456394646718
-9.48110757805887339 -5.78416146415486043 4.91970005674910027
-8.94179450345936644 -0.470149533246502771 -3.5993676108041357
-7.35658473868420337 -0.463508474549993277 -2.25979982325813067
9.73266410319410902 -0.0124713911614858456 4.90477719089986941
3.14681994005573351 0.850492615602580715 4.59112551063954477
-9.4929166166795973 0.989630249526541661 -4.89424282075533057
-4.81871592442791385 2.29969768857976709 4.14643464574505494
-1.78386817846898627 0.637568708959941888 4.5907844516971581
-4.03397576815972769 2.3061824727054927 -2.48244737583164676
-2.13023739991037164 -0.431780639146831902 1.07552897193553787
3.35626601648271139 -0.949918081377183365 -4.61452752457817539
-7.56467444827089341 0.492552603131157674 -4.89525386947079966
9.33024216772016679 -0.986070421413886344 -4.21890354039342697
5.74371395045786404 -0.410035531334101311 3.11319654231203113
-0.679801309257666686 2.29167232829084444 1.67203726078710102
-8.44104965725318479 -0.447399777393127418 2.10705131536394497
9.3266629096949174 1.70819990008636613 -4.74628462701294307
8.26515694620891672 -0.425971487154782613 -2.32545407922654412
-9.91417113472243727 -4.62522257602992681 -4.37323553521081276
6.96123552060408457 2.28841419019356707 2.28107338767444734
-9.15292633068274419 -3.22334814847031392 -4.75810005527663815
-1.49075252119481871 -0.442516780806579468 -0.728309123628738897
1.95208228237724701 2.28641709789710967 1.90653163960738015
-6.87485017182076419 2.31020730382904205 -3.15880519177568564
-7.8659723132178323 2.30883744926497636 -3.99215830042454911
9.99738151270742925 2.26733205508845526 -0.840916524173061175
-9.93978751109451686 -0.421865999579318141 -4.76346187028236479
-6.42646593496991159 -0.44009305371884716 2.2337329923159972
4.64300201739049712 -0.42864565831028878 -2.12069559398150043
-6.31612365042173263 -0.448044554605628087 0.796794652116387447
-7.02639408996725656 2.30823757642929683 3.56749030997566052
-8.14463973124997054 2.3090355984295261 -4.7782730127426909
3.00352759477424636 1.91298439264487796 4.79659436143161866
0.847711475361775046 1.43758149857616591 4.5884325928525671
3.02587088980836771 -0.405128265455491077 3.34726313029306732
2.39425229454464317 -0.406003490456176008 2.23690237354759747
5.36097066099471942 2.301567250320109 -4.02073851187647957
9.76235233906049693 -0.939852797150584229 4.98581165707790319
1.69673926625705729 -0.414051028736711124 -0.723226104745507969
-5.91923296175469726 -0.423410049057128979 3.93448506912369167
8.36027913827537716 2.29806890428351318 -1.53006256355928416
5.80986901110841814 -0.0173437235537955425 4.56188230000865325
-1.32686811664268589 0.464254942886178634 -4.90960297191791106
-3.77979204420721526 2.29649200022133826 4.23026676801838786
3.1713852272080949 2.28526685179624334 2.64069511620442254
3.26156335366164951 2.30184398245412325 -3.94112252219439663
5.05093652795887316 1.09455411716388307 4.56770067388931889
-9.32039695180412053 -4.45367707573374894 -2.9765399693307848
-7.96603089180444091 -0.0606651230871846636 4.94835584595151268
-9.0153003581773028 -0.466428652418645562 -1.74794539499035206
1.02983647854829563 2.29332493777685764 0.283585648212815178
-4.24063049781304091 2.16082780371138261 4.90905511842666975
6.42142996916635589 2.28736423748946516 3.55099699380012845
0.25519075723759449 2.29842513428449768 -4.84330431693172869
0.711877783742123293 -0.424468129428399454 -2.23814160269544793
-9.24398213829996251 -3.82088962859815462 4.22127299879136242
-9.65809716290902287 -4.15192597839685451 0.740667785009750168
0.402097679475194036 2.29071681536727212 1.23490404038085577
9.6796312294108553 -5.70664223383037505 4.28598019986112533
-8.11322094952666184 -0.447845205455051631 1.38505814744431244
-4.8982369623395039 0.703813235780107571 4.55682114224087709
-9.30982845106975887 -4.41279610398391053 4.0065338984883061
-4.82859550480396305 1.82430531916351923 -4.9075986737227737
0.518553683320211234 1.90466356069361997 4.7672749691205798
-5.04755376495850427 2.3093194390121905 -3.04616303826862334
5.77486582892114164 1.9739484486369332 4.88842697704100004
9.98965535024837692 -0.387726444240865498 4.816334730844269
6.09682304014313647 2.24601577879541159 4.87723779675461877
-8.93453535824818701 2.30703137185487472 4.33078846713503385
-9.92827233374874218 -1.52880156880600482 -4.34892685239240251
-7.88735597910311981 2.30957501855371916 -0.388476961631570528
6.08908559844763531 0.116876943318792961 4.55928483458157618
-1.47637016921054909 1.39439830159508471 4.58923885992908431
-9.91998390507497341 -3.66334521972902216 -4.88889642633748256
-2.26802980955969291 2.29768701693331767 3.23739106202488403
4.13223511610540317 2.29669004328635129 -1.8626601555008464
-5.94903120364170235 -0.421951268377302346 4.04729025802743614
9.12681700054501199 1.17208974811570732 4.55945924422348003
6.17855325902088293 1.35886842130510321 4.56313559849015515
-9.23978930125438147 -7.27574155122536048 4.89829623188695784
1.50465140973410905 -0.732023036293284579 4.43917899210099343
0.625610437201252201 0.775423756156706223 4.58917347140100063
9.3293057179262302 -4.36818871429486766 -1.40679798593346383
9.24652210599774449 -6.71388221569543919 -4.64773561212889597
-9.3557469746620292 -4.80283388598944061 3.04598039699210421
9.05837144037677433 -0.435098788497851774 -3.66014148208561663
-8.86110989209549516 -0.439235081506460512 4.01567399012511395
2.86132360674674402 -0.0353029724170104142 4.76229371636475296
7.34662255540110909 -0.411492665721404582 1.86663444894967157
7.87162007979896394 -0.412160699954282228 1.41604266886042218
-1.80814786192983834 -0.45456031164680949 -2.75994462377497696
7.89036156015937706 -0.411741142523858017 4.28341752620794392
9.88250389560638176 -2.8916201833967401 -4.98201112111789701
-9.48142414428015279 -0.891321844617886772 -0.250302075624098286
5.53904380017091835 -0.821698903385795432 -4.94582149334497245
-9.8923592038252437 -6.66510380597140006 -4.35026800402833747
7.56692691723412381 -0.415566857078889851 -0.231701142603232851
-5.63921123669637137 2.3093561816784165 -2.32539163036342433
-2.37974348545642478 -0.620773796566239655 -4.92038422025376665
-7.63036588477481992 -0.467292533103008945 -3.91782420085616989
7.73913681575836154 -0.025179903972032288 4.82064200145353894
1.18356494967142845 -0.790582350550813273 4.44004817063166612
-6.95425859320943829 2.30803589571833756 3.63620409373348519
-9.92019615421650691 -1.76554220152518693 -4.15099704096646516
5.54549474774847173 2.30130924343687138 -3.64107339274758601
5.13535597572176972 2.29898574603937789 -4.92115449848245223
-5.50584418320618507 2.14972638876891642 4.90966044172357918
-2.83328189163892485 -0.456927748288791236 -1.98713785429218848
-8.39676947683677888 2.30780633405941904 -2.93083119552029903
-9.9275634020752932 -3.65559892579104684 4.36937470368825753
9.64348302159680593 1.29330483029007204 -4.74039808200250956
9.98456399995183475 -0.506086295034529954 -3.83399553770154133
9.95864034687605049 -6.81012788272706526 4.80144725272382011
8.89309867394595877 -0.42244587519237059 -1.67149871242394066
8.97743816878520384 0.188979985732822459 -5.07865309488471794
-7.57007101928097192 2.3100706180407502 1.06432143502234067
-9.84799294632577293 1.52166077065012972 -1.44099011915669806
9.58765569195505307 2.29932668945505414 -2.35810101950011708
-6.2791869069630577 2.30711909364179579 2.81669460909721447
-9.13264582796367286 2.30744704384677313 4.4595046356632837
3.51755645612932399 -0.40785943375721212 2.73899782195588681
0.3827062878655903 2.30377166242281062 -3.35706975946328745
3.35421025329583822 2.2837964350127784 4.59343918777053695
-6.69714887183797991 2.30434675273105238 4.23888767078704465
1.89169552493724646 1.0660305019223375 4.59024372782120338
-1.88247893708774905 -0.564005637368104606 4.99349693622209934
9.91937359258098894 2.28944887284150322 2.5318661201493855
2.27766859595964544 0.261993772950221082 4.58943100500198309
-7.35505488385736239 2.30645231909096049 3.94292740680991249
6.01807312271569561 2.28636223146867934 3.22320960537463064
7.39850893845568791 1.12787630343154266 4.55681272352516409
-9.82282835669090026 0.669560092624902015 2.48051324885553548
4.10930396504453288 -0.930775582621737985 4.44209325835910107
7.80098551881041136 1.6718413653948061 -5.0731927630602538
-9.92313660650867746 -4.0854462505629181 -4.81438479672259056
5.9783324468068253 -0.41826645453856709 -0.334750237420209151
8.63606914673185244 -0.504833082282244772 -4.50582064884227496
-2.35106527336717264 2.29921020727740189 1.11036136432437615
1.83778606535626143 2.29055693700140584 0.436528139449692765
2.82351688516936283 -0.425154777014199681 -2.53953886674686835
9.16549065536683294 2.29072926648527675 1.95008167668287657
6.42088599869972843 2.28804684720571228 4.5242533431071239
3.10049621659772345 2.29732061776291285 -1.55210041971258805
8.39310872050029033 2.29939630002677786 -4.74002837745322037
-8.2009824517355483 0.580661553867702795 -4.89640495993522684
3.97629350783836388 2.29501911407328052 -1.24510870584031852
-3.25702699933643824 2.30436273715472106 -3.15952448018611998
8.96510671855056174 -0.419997372911536604 -1.15705811846129003
6.36073841652443051 2.29268031158518859 -0.199768008527380886
0.0545357833100271749 2.28782420876648152 4.04520086082189234
4.12818468401845795 -0.45278070680510818 -4.95152834735614
-7.08283075874338763 -0.459305274258630325 -1.09093841680848369
2.9571851651195189 0.333047945946633894 -4.95736929152915451
7.50130355500552604 1.69736252367125906 4.55713821737910241
-5.97355256046546312 -0.0602898983349586665 4.58723407124264693
-9.71472474976535771 -4.66389662302278118 -1.85023090839431359
4.19818301275586325 2.29433778226205165 -1.16091222973058761
9.8611743118310784 -5.69635258931973176 -4.36752075135238105
8.68920180502401429 -0.463896651983079278 -4.49268809224908683
-9.52289317471726271 -3.78565032036975913 -4.93778376711266453
7.90419146958429053 -0.423845074576549241 -1.76836903912938959
9.29166625786513833 2.29887386396965976 -2.07965690267152459
-7.16977062954865918 2.30983462027732189 -3.13565855014701089
-2.55790242812283353 2.30141139571378694 -2.63766992314738768
-9.36186586144143362 -0.366795279618769787 -4.93055594853554879
8.17975194466692201 -0.959227721687681223 4.80727306208954452
-7.227647399004276 -0.462733477534375992 -1.54514678762778734
2.42087573932054845 1.70537124142027663 4.59119453904745978
-0.775998048914712801 2.29818717146501772 -1.31821794345104171
6.19735857525100364 -0.411791528002119878 1.83644179713221489
-7.44855238926106189 2.10482078220310154 4.91012760942513804
-5.46402272704135683 -0.440598979125215839 1.5864323812123533
-4.42884932362838679 -0.436285849102920398 1.60028796181033339
-3.05241465193235495 -0.422209337623338399 2.38795780581761719
-6.75527544986976203 2.31020772564029198 -1.25576152250112671
5.17143515265801312 -0.412042160248500211 2.08848470719588919
4.37332931503191702 -0.414346162034119725 1.24794253897969742
-9.71319756335856255 -4.77123420414624366 2.10903257581870474
8.15603121598798886 -0.432002751903863114 -3.58785020882549111
4.10560453165939254 -0.408635566502780434 3.70797230029873104
-7.30879038487601562 -0.444113397411136979 2.0689328866809471
9.32518381199030877 -1.86849504699026681 4.9690315512965979
-4.47083884400293208 2.29931691607314459 4.1126567813374928
9.7476535046687296 -4.80217253074272854 3.58613711598619389
6.07199813647009812 -0.0303582546790655099 4.58523760842629269
3.62033790843171932 -0.308539107353016484 5.00047574841286036
-3.95060426540072251 -0.461244602074219523 -3.5331638495256299
-0.921368616916760197 2.29568670671435449 0.317467810473970824
-9.93077093851378834 -0.175415515869390165 2.16305430305890045
-7.89640929480936737 1.54105355032596614 4.56521574152371112
7.2871584405177785 -0.41239327216163596 4.12757974583346599
7.6595390529975802 2.28820055875715189 3.52140086694598731
5.8376682986523587 2.28790062441092257 2.30323077685687894
-9.31152914857495695 -1.35968191756507806 -4.92788532250309963
-7.46566751490484304 -0.44369936276268207 2.19542334985730614
3.6473319347310218 2.30183052297973356 -4.0876108639463018
-6.09856515114436615 0.297507591290478435 4.55164287407474344
-5.9986717455194638 -0.460438670962974972 -1.58484033698113658
6.57949383384250197 0.673511800408553851 4.56047766133173216
6.46931345946675762 2.29264486478056551 -0.571410616521512704
3.57208461298603286 -0.406780228210468053 3.37434107755620438
-5.19197319714380523 -0.450119467932354189 -0.152684958428715184
-8.21965251729732671 -0.185575095592158956 -4.92291706714230148
-9.1841116172039996 -2.91379042345361716 -4.13986166015944335
-9.12390666272763617 -2.60454941830175724 4.26900522764735335
9.58449665578551802 -6.98094358210178711 -4.44362122269837645
-0.532829691651409365 -0.438618797987953335 -3.20467177007720716
1.11230910805699912 2.28863291517330136 2.74176217875368833
-4.83540985470263163 2.3083312266835998 -1.61786829431795032
7.04367669344142389 -0.428716232073663606 -3.13673184682840933
-3.6052499461129357 2.30382401971916417 -1.02627694455561902
-2.4940624155689135 -0.417304463978740658 2.80396658086050188
5.16361124290081808 2.28696326191774402 4.56988687707751406
7.10457412036523106 2.30038063162987516 -4.37744910849355851
-2.84023516451420299 -0.734154287518164139 4.43622897453461196
-9.68333456974673545 -5.3464909737070192 -4.94965105030756547
-0.0778051095136304272 -0.409439176991004294 1.96452674709885655
9.3035629558267825 -0.706167714619882037 4.190757134966141
-9.3301902625404729 2.30927393576064732 -4.60120011194065537
-9.40697170853141529 -4.80500276808167204 1.70904522623578359
0.159958911844027857 1.25022906004883305 4.58763147647667235
9.91153727372096505 1.80503224073027568 -4.14750421298991423
1.07528577798581604 -0.419360844097340202 -1.70178381352095354
2.52484842689650257 -0.422274197714768817 -1.61155691897529274
9.33080232819393451 -4.75760266735831028 1.46022076521116806
-7.9510303784448837 0.95369070782830645 4.55765727757314387
3.15994953258686362 -0.418215756105931646 -0.299532110874969726
9.61144554508418203 -4.15740514006430839 3.70418852984583458
-9.85230797714180895 1.33925747603811529 -2.76869084732062953
-8.57051601097695759 0.868920898075248971 -4.89859459283549459
5.93451476937093325 2.29256329736069242 -0.409658074741232558
5.52029217018364804 2.29938849259127354 -3.02784728510809087
2.8449436145785354 -0.952175366739689499 -4.69859227122490974
7.68173649217450016 2.29465164062016447 -0.470276500092149163
0.132869912257430861 2.22408575804312436 4.89412432290015165
-9.8239652996092719 1.05532632704771867 2.24825860485642171
9.21522731894088842 -0.427284357396458647 -2.92003977337825349
9.06928368603741042 2.29877256198827506 -1.61647322468916999
9.98789745911598104 -0.954741802158427855 4.80919483690898364
-8.65216902193251691 -0.174264242170750955 -4.9248837509153276
7.32534997248754927 0.0413720662434292827 -5.04539337799079846
9.75402461562517509 -4.29657739463945454 1.69141860353662632
9.96980677637146151 -0.0718556545814805631 1.35951090886557036
-3.20788047938004439 2.30130787737773757 0.747293161927348182
5.3382257702182514 2.29244564359905167 -0.315508524322959893
-9.44580134546032291 2.30850260450397826 1.33246303312280223
9.35773980887586454 -0.57373556489617461 -4.9925420598826431
-8.04056320349471321 1.83864875664832628 4.59680782601369931
-4.63954677292187156 2.30871951014152677 -4.0807541928643305
6.98324046904201623 -0.413253863731374793 0.912267680335100972
3.57222040191097578 1.98022798740607753 4.89621156728030726
8.12470490801090861 -0.412131727554250538 1.40292225293627948
-4.48495989452504862 2.30750704461078859 -1.28883688148345366
-8.59589048548468604 -0.456573582409952217 0.10688605982123478
-2.42273909690145883 -0.796074751951385884 4.43409136325837938
4.33707794879228015 2.30156351214882582 -3.58558763614157128
3.14212802222217613 -0.406481173627464221 2.85005041725699471
8.19753703332364481 -0.43823756883925491 -3.98267781270552002
-0.2366334371857019 -0.435680768535796292 -2.69538661721895334
-9.82104312238219102 -0.0245575527753014965 3.49210549927681013
5.25525510840042553 2.29266776949404871 -0.509397249391726592
-6.93198111332878852 2.31071926577077802 -3.48613522703841072
9.20685805980318328 -1.07569667520892853 4.34768023728640962
-5.02739055525944245 2.3094687139100265 -3.73561129160458361
9.33298583113462499 -4.44892328776310997 -3.41890999163303455
-6.34055498210325563 2.31071765064580736 -4.27786549924463433
-3.14611557265669939 2.29392371935804462 4.48958515476182729
4.54018456611854138 1.73689329925391367 -4.99621142197248069
10.0137187425848797 2.24924894175175849 -4.83906244597893753
-9.92911025487421561 -2.12915832196759736 -4.79296377140105001
9.33396576797681377 -4.60213908161328167 -3.07099792511753433
-5.85616117065614361 -0.448696541035021212 0.379753892966893714
-0.330855622898815316 -0.600713134938991256 -4.49850045587574066
8.10196886428373553 -0.41230711840363482 1.25906779664664636
-3.08413488606545227 2.29378000740000854 4.65667280595714228
4.8332006881057259 -0.110949549820666696 5.0021006077007808
9.95513969316029979 -7.02403041559659158 4.51208413197238123
-7.15979760482600547 2.30527457679023673 4.3124328586937839
3.38466031881477569 -0.431270395931556583 -4.09092610740935836
6.2884916509235893 -0.116991986477154752 5.00307436834649355
3.13647769302897039 -0.790286629596771317 4.43800438386763485
9.07866182708024816 -0.419074186247126945 -0.37754796362013171
7.97899184283432472 2.29025239355035826 1.62597888419659675
4.17893588444586062 -0.428633577314729119 -2.04735479025653655
-2.54099167446738017 -0.92769598980947976 -4.48768818087295518
6.47590494081605161 2.14585667404083047 -5.08566253211259056
9.51872491602837378 2.29438764217848323 0.445814913278939795
0.453149891713786002 -0.397191400029755171 4.22422077096902449
-8.29656980206685724 -0.606196360768299969 -4.43800227925495605
8.25950870153413597 -0.420393073076300139 -1.41027512576618008
3.55835256277106726 2.28510050714285073 2.67043747045890578
6.5500166357858971 -0.414740851342801198 0.60632405802394973
7.29475068365047719 2.00735615995069372 -5.09036550609121896
5.15380687124581893 2.29328167590050791 -1.16583622088174232
9.98092434191910982 -0.792621532356801328 1.64320298112927476
4.85043472188361591 2.29378596971834492 -1.25000128411350797
9.96806019866139081 2.29244202119330698 -1.62575023517735762
-9.51753737650158271 -4.80948512922079985 -2.65961970450881546
-2.15567007527081955 -0.794557871271117433 -4.91740152321701629
-1.60783279342461261 2.2923817398868831 4.50632002234680673
-8.23404938764990746 2.30794067922136348 3.22526715087640792
6.89680834582371372 2.06250792200521538 -5.08874919261074421
2.25944504248646449 -0.764979882110637055 4.99825532301009368
9.41462003877080278 -0.0587440974779638928 5.00275842634086132
5.93675821215414778 0.588304702957453851 -5.02597960112678788
9.90879985726004442 1.37719516995564151 -2.42132055982453887
-1.86626850153941093 -0.41184372747151593 3.2113705695693322
-0.164780482858908561 2.30313124988621265 -4.19556127078299124
-9.89358864200407773 -6.51320319613686216 -4.32170079178691591
0.148412708397257093 -0.430922729885345634 -2.48715953384441901
9.97808301185524193 -0.921226862468192631 1.9224365862784536
7.44563596282766493 -0.411267190434217222 2.16618004365900285
-1.02579867981572392 2.2924755865245654 2.39934216392004407
7.15427007564431783 -0.412341610584384621 1.20849672475263614
8.75710513584833095 -0.414762767380062125 0.946285037457146649
4.30480815119581095 -0.409078577072663097 3.90306289252335725
-6.97656361668023006 -0.947006346292862955 4.56955416166678496
-9.93483902979908606 -0.58865131233952761 -4.6174668112826156
0.73830377317849305 2.3028385577091437 -2.81501138348147828
-4.22197145948525598 2.30664533704399055 -1.12679505815826975
9.24175776088688394 -5.56933493735207374 -4.59079862333810951
-8.72238846207873131 2.30854688246726525 -2.3799799612388175
6.26072641573921196 2.29251193651466423 -0.170005612987175397
8.57110881564524263 2.29023884276372547 2.23148927272740449
9.97298125207758268 -6.51806805653525156 -4.89699293017326465
-9.91950527872366017 -4.34364178238611753 -4.60864120838084901
-9.82494210142048097 0.164967432455512292 2.7331675555430972
-5.68258580171053929 2.30999182289464988 -3.97477172075280727
1.57914235380226753 2.28767179841639257 1.34438502227634871
-8.75841633422636257 -0.459119497081851236 -0.421891344572109694
-3.39140760173746392 2.30182748733890374 0.984593573433036551
1.72036165349039361 -0.403449606187534893 2.45769127504784679
-5.45595141903626235 -0.451705260768745565 -0.301755222655459343
3.25104435894313371 2.29130723819502791 0.163469792309862416
6.96306358102436107 2.29308393055301707 -0.150637266296586331
9.90619038044436273 2.29616685348216976 -0.700338703584258981
-9.77292713347598507 1.8779196902314681 4.5350793135709635
9.27070880906407169 -0.447759248339197558 -4.10917077162025279
-9.24782077312349848 -2.25084812622930563 4.93310303012815776
4.35420829003163945 2.2862843461226583 3.83208896715159009
-1.47427166816277722 2.28742603114621357 4.85808058435143764
3.89236527039648328 2.2877614017037593 1.25524687352967179
-0.910645350546511523 -0.404587709664392059 3.17159298694565139
9.88735707771494532 1.34267078729943679 1.12616485670677102
9.54245629093001213 -5.97723595247823081 4.94243071063814199
-9.36047624040125648 -1.719764084428691 -4.92913218296334055
7.08770938880304335 -0.411367310010846865 1.88062926433801447
5.35785677371561952 -0.412768295853842226 1.76708727720255698
1.1057910055281428 2.28599152714433052 4.73685642095995885
-9.93595442814101304 -0.259112381712927164 0.130687855016689197
-2.61494325681336859 2.29629656187123432 3.66275467441814717
9.31278689915137647 -2.08648133825140603 4.22712386208730795
-9.92045619079849672 -6.14203338625694428 4.54778394748162018
2.49546490866119353 2.30122993707916512 -3.35487137222035425
3.0136596479298885 2.30049422238640977 -2.84241414332290221
-9.47975985801173948 2.30738752034993055 3.42528750493783463
-2.3402166695815847 2.29483639881600787 3.9728846276772205
-9.89929430551371148 1.93551458591918402 -2.94786926445414998
7.8847180091906095 -0.428532629330274417 -3.18714724866415011
-9.82390433155723208 0.506781704792602317 2.0049335101657717
7.98622301456966355 -0.426325526299778157 -2.53590180388930175
-9.92959796228038272 -2.01490320796535283 4.48509573512488124
9.96163088346359871 -5.90237441262809703 4.88980139687014503
-9.40585305606220778 -0.462644313736239321 1.97229382025419353
-4.40628032446079487 1.70913639653487537 4.57263814682528125
-2.9672017327197211 2.30186462698528471 -0.184595488989361928
0.879820506038378025 2.29187270160548229 0.85994064547041793
9.52724297965951195 -0.743474318935770428 -0.212149933170421467
3.79720019632304995 2.28555146348321347 3.95780303953871915
-9.36790348091702718 -4.152222472820009 -1.56082667442348799
-3.49510908323480729 1.4333385956159248 4.58767085176734835
0.903635653574376918 -0.75009695363401252 4.43947092361717655
-7.37962660259877623 2.30899290272679014 -4.84621885009150777
5.11420648641484377 1.21122318648303229 4.5676408001772888
-1.13630883566209784 -0.451606742165344799 -4.21658008062131362
-2.92782722094199066 0.117650304879664047 4.58502613345315702
8.31956976359374423 -0.429465806730386257 -3.27564546289830982
9.76379163914600134 -0.904842247654898291 -4.99524929901657178
-9.85433018361857016 1.59191988154651987 -3.47730580887094565
-9.92898427058598898 -1.67480360309601695 -4.53326984390438348
3.62856789636951893 2.29706703410902291 -1.68559087606973779
-9.82462861925703912 0.326256283711337358 2.37492732970939491
2.28004962894991348 2.30152871813267179 -3.55744526786451232
-3.2257135599975344 -0.426727223237062803 1.86165291895216756
-9.92838377798700122 -2.21868633758187572 4.81538029680059765
9.98604077471113882 -4.16148378808138819 -4.80645435570239421
-4.45566203555245455 2.30730638139035404 0.00731694294304747594
-9.85607740876369753 1.72264363292651557 -3.70007138255763435
9.24836314227230538 -7.12005754563970328 -4.81862850201382642
2.44206196210774973 2.29039383425086429 0.414751007019978746
4.11166742196717916 -0.033526869243534714 4.66669873857117867
7.42512828584107254 -0.666729380981344821 4.42846258266451276
-9.18421697208252397 -6.43569956311530778 4.69147786944677048
7.40414299979623536 -0.42649776588609456 -2.64274356958312806
9.39904623742596712 -0.420955346298761524 0.0727055566758495198
1.38576063749517564 -0.402562045450880091 1.95926271675883257
8.80705156165908853 2.30084982517437098 -4.04315449824566286
2.51965879449110464 -0.404611495497340878 2.96791711190554208
-5.10344519475288294 2.30906074924086191 -0.683559655480543205
-8.72605621080516336 -0.45697779909027908 0.316251900330641877
-8.57180104793091324 -0.449762217152808452 1.67342679241965375
9.90873940339667314 0.76393082725981909 -1.47420995921555442
-4.01101904484752314 2.3058282845851541 -2.09431814635755709
7.88096598569441298 2.29281680482809547 0.806927058967237043
2.28939207199692252 -0.408584391931641033 1.18458433535640428
4.77589823931895108 2.04550167579237385 -5.06830800493382849
9.80333444308227797 -0.962335519432601538 -2.8924892445844832
9.31636374260981981 2.2951765102287891 0.00919875642646546081
-9.6528671422936867 -6.13440996966807894 4.92138162615195807
2.20124446727765166 2.290688871400135 0.310191403003613198
-7.98727679117806222 -0.955232077605500995 4.93060909605514741
-9.93151290530713027 -0.443318220407468766 3.31982949185231879
-9.30090931140880706 -4.21665717941847262 2.24328434240333996
-9.66076696507848887 -4.80668882349866955 0.282723865145291353
-5.40025120976564743 0.695453844096700191 -4.9027563735208739
0.688984053225980997 -0.397714942713853326 3.98628067838983124
9.54093437011733236 -1.98463336612056684 -4.23050155379602
9.91528509050665008 0.417440100292935823 -3.63511462427424226
2.95161512577090468 -0.431900196118760848 -4.36605788636100378
-9.93379562678847883 -0.923708960495871145 4.4607632704279423
-9.38139801716973132 -1.21676455436107545 -4.92858805321741489
-5.87396419937976422 1.58425162941530551 -4.90584274048350366
3.28608629182452683 -0.427118569836760886 -2.8847890849414024
3.80693290272919471 2.07413219774353141 -5.05043850456448418
-5.70038955626436206 -0.463312502352350886 -4.008905252997085
9.39069573661981849 2.29586838890165224 -0.572336816442126639
-0.897899253598271163 1.90402287389562686 4.75857355466513532
9.98174089126651864 -1.97639820112840647 4.39592528559285967
-6.02764024882916161 -0.462130666488995145 -3.23460148670971215
8.95944240499177624 -0.425830494939812787 -2.24253912024265833
-9.23376546748721339 -0.464297173262322227 0.544795461673546755
-7.47603535168161848 2.30935982007884766 2.50729210003752678
8.16104769457190571 2.29247685898055797 1.02281257287275484
-4.20685070779671744 2.30660178934201321 -0.978989991407851035
-3.85046413169316226 -0.44521089543164849 -0.0441791577427046306
9.17541520497842988 0.178081814065283311 4.56993959507784719
-9.26828886627811244 -5.46277309420736845 4.24903508825942389
5.37347052546907289 -0.414145205413849637 1.417833103109579
-8.10016528314802287 2.30828563707002932 -3.76281321375081879
7.9193311602846812 1.38365068592094786 4.55394305115655129
5.43583893101458848 -0.432814135100862862 -3.64374126134453613
0.899991712787743148 -0.406743215677723813 4.99714446664204281
-0.444352714567259666 -0.413736582944975673 1.52488198361595262
-7.98935266515411691 1.64824272175872655 4.5673851011863853
-6.85694115319686759 2.31002890332758515 -3.04830354938475434
-9.93676408370446218 -0.279357380512482212 -4.55061141761930354
-9.90157306548957195 -3.93482993940973191 4.912714844949015
6.54644064327108577 2.28754920710843779 3.58653404813581833
-8.34477076186511013 -0.306649738955040163 -4.92166079728760231
1.04396255392199966 -0.0502567245646812072 4.95293149462658633
-6.08760093614099063 2.30381253316828838 4.63926354552552045
-9.85181676231214531 0.97448349706191395 -2.93210996206399477
1.17226855318084655 2.28866833795845537 2.51085068773241504
2.84995858196402763 -0.426496725220050998 -3.68108986664660875
-8.20100115522397566 2.3059560629325051 4.64045157014645149
8.16981376528199021 -0.411142641391423036 2.89928251002430892
-3.71225913297755428 1.67229559567750807 4.58506596191534932
9.52542326606427814 -0.527298707666270627 -3.82907307612977821
5.93739907122376653 2.28936687653572113 1.35540383569910139
-0.23932272007638461 -0.434852160566517321 -3.2372264854876085
10.0192944886034105 2.11909858434726051 0.11525337096491152
-4.7164531933537992 2.3035595117587091 3.1359259230112535
-9.83657922681015506 -6.46146565984745003 4.92123245289061462
4.77217640055695469 2.28786416539858806 1.50985699376491311
-4.89150422309610011 -0.431403455851897599 2.7172959504142562
7.48753698476848939 2.30087371179506039 -3.45776608310281564
-9.93024672516708584 -1.53448221256765072 4.69433686923523474
-1.01727875637329701 -0.40149058039943547 4.99599552976832584
-6.42872459131713647 -0.465151024987773387 -4.04370390967491655
-3.5503827227939424 -0.599215361855581552 4.4315604593813962
-1.20263511231462261 -0.944640105295468824 -4.5046260407900105
-2.32050000458455363 -0.813382632892388768 4.99575811019377447
9.97697957913877964 -2.816380958979535 4.39199959379648597
9.46312872137168526 -5.57495031776179317 4.9440638566252666
6.99760242963581192 2.28886725413937642 4.33058378372588848
4.7085477574964294 -0.706802218845605679 4.42664045077422941
